# .PCD v0.7 - Point Cloud Data file format
VERSION 0.7
FIELDS x y z
SIZE 4 4 4
TYPE F F F
COUNT 1 1 1
WIDTH 1288
HEIGHT 1
VIEWPOINT 0 0 0 1 0 0 0
POINTS 1288
DATA ascii
49.07222222222222 51.761111111111106 121.0
49.74444444444444 51.761111111111106 121.0
52.083333333333336 53.47222222222222 125.0
52.77777777777778 53.47222222222222 125.0
53.044444444444444 53.044444444444444 124.0
55.03333333333334 54.327777777777776 127.0
55.73888888888889 54.327777777777776 127.0
56.0 53.9 126.0
57.15 54.327777777777776 127.0
56.48888888888889 53.044444444444444 124.0
58.1 53.9 126.0
58.800000000000004 53.9 126.0
60.916666666666664 55.18333333333333 129.0
59.24444444444445 53.044444444444444 124.0
58.96666666666667 52.18888888888888 122.0
57.68888888888889 50.477777777777774 118.0
57.355555555555554 49.62222222222222 116.0
53.5 45.77222222222222 107.0
58.138888888888886 49.19444444444444 115.0
37.82222222222222 31.655555555555555 74.0
62.00000000000001 51.33333333333333 120.0
60.57777777777778 49.62222222222222 116.0
62.27777777777778 50.477777777777774 118.0
59.733333333333334 47.91111111111111 112.0
60.89444444444444 48.33888888888889 113.0
58.8 46.199999999999996 108.0
64.35000000000001 50.05 117.0
65.0 50.05 117.0
60.03888888888889 45.77222222222222 107.0
63.46666666666667 47.91111111111111 112.0
63.516666666666666 47.483333333333334 111.0
58.35555555555555 43.205555555555556 101.0
61.833333333333336 45.34444444444444 106.0
70.07777777777778 50.90555555555555 119.0
65.98333333333333 47.483333333333334 111.0
52.8 37.644444444444446 88.0
64.18888888888888 45.34444444444444 106.0
58.66666666666667 41.06666666666666 96.0
57.96666666666667 40.21111111111111 94.0
60.355555555555554 41.49444444444444 97.0
61.52222222222222 41.92222222222222 98.0
63.96666666666666 43.205555555555556 101.0
47.916666666666664 32.08333333333333 75.0
67.66666666666667 44.916666666666664 105.0
67.60000000000001 44.48888888888889 104.0
57.03333333333333 37.21666666666666 87.0
65.45 42.35 99.0
52.666666666666664 33.794444444444444 79.0
42.35 26.95 63.0
50.833333333333336 32.08333333333333 75.0
73.11666666666667 45.77222222222222 107.0
40.644444444444446 25.238888888888887 59.0
46.52777777777778 28.66111111111111 67.0
78.39999999999999 47.91111111111111 112.0
63.50000000000001 38.5 90.0
66.84444444444445 40.21111111111111 94.0
75.25 44.916666666666664 105.0
83.77777777777777 49.62222222222222 116.0
89.51666666666667 52.61666666666667 123.0
79.93333333333332 46.62777777777777 109.0
39.16111111111111 22.67222222222222 53.0
85.61111111111111 49.19444444444444 115.0
87.0 49.62222222222222 116.0
64.22222222222221 36.36111111111111 85.0
77.63333333333333 43.63333333333333 102.0
82.80000000000001 46.199999999999996 108.0
85.71666666666667 47.483333333333334 111.0
96.44444444444444 53.044444444444444 124.0
93.21666666666667 50.90555555555555 119.0
97.03333333333333 52.61666666666667 123.0
96.12777777777777 51.761111111111106 121.0
93.60000000000001 50.05 117.0
102.30555555555556 54.327777777777776 127.0
94.9 50.05 117.0
91.46666666666667 47.91111111111111 112.0
98.66666666666666 51.33333333333333 120.0
96.02222222222221 49.62222222222222 116.0
86.66666666666667 44.48888888888889 104.0
96.47222222222223 49.19444444444444 115.0
97.95555555555555 49.62222222222222 116.0
95.2 47.91111111111111 112.0
97.53333333333333 48.766666666666666 114.0
99.02777777777779 49.19444444444444 115.0
97.93333333333334 48.33888888888889 113.0
95.94444444444444 47.05555555555555 110.0
101.82222222222222 49.62222222222222 116.0
85.68333333333334 41.49444444444444 97.0
-113.77777777777777 55.46666666666667 128.0
-132.5 65.0 150.0
-121.13333333333333 59.800000000000004 138.0
-142.17222222222222 70.63333333333334 163.0
-115.26666666666667 57.63333333333333 133.0
-82.66666666666667 41.6 96.0
-100.1 50.7 117.0
-116.45 59.36666666666667 137.0
-127.5111111111111 65.43333333333334 151.0
-86.40555555555555 44.63333333333333 103.0
-98.33333333333334 51.13333333333333 118.0
-112.57777777777777 58.93333333333334 136.0
-114.28888888888888 60.233333333333334 139.0
-102.08333333333333 54.16666666666667 125.0
-69.75555555555556 37.266666666666666 86.0
-109.55555555555556 58.93333333333334 136.0
-112.80000000000001 61.1 141.0
-100.89444444444443 55.03333333333334 127.0
-97.82222222222222 53.733333333333334 124.0
-104.96666666666667 58.06666666666667 134.0
-114.33333333333333 63.7 147.0
-86.4888888888889 48.53333333333333 112.0
-102.73333333333333 58.06666666666667 134.0
-95.13888888888889 54.16666666666667 125.0
-95.95555555555555 55.03333333333334 127.0
-93.0 53.733333333333334 124.0
-96.03333333333333 55.9 129.0
-86.45 50.7 117.0
-88.0 52.0 120.0
-90.24444444444444 53.733333333333334 124.0
-88.11111111111111 52.86666666666667 122.0
-86.71666666666667 52.43333333333334 121.0
-84.62222222222222 51.56666666666667 119.0
-86.07777777777778 52.86666666666667 122.0
-86.1 53.300000000000004 123.0
-85.41666666666666 53.300000000000004 123.0
-81.97777777777777 51.56666666666667 119.0
-79.95 50.7 117.0
-80.65555555555557 51.56666666666667 119.0
-74.61666666666667 48.1 111.0
-76.66666666666666 49.833333333333336 115.0
-81.97777777777777 53.733333333333334 124.0
-79.32222222222222 52.43333333333334 121.0
-81.9 54.6 126.0
-78.62222222222223 52.86666666666667 122.0
-79.8611111111111 54.16666666666667 125.0
-79.16666666666666 54.16666666666667 125.0
-82.86666666666666 57.2 132.0
-81.5111111111111 56.766666666666666 131.0
-76.46666666666667 53.733333333333334 124.0
-78.83333333333334 55.9 129.0
-76.3 54.6 126.0
-78.0 56.333333333333336 130.0
-72.52222222222223 52.86666666666667 122.0
-74.2 54.6 126.0
-78.75 58.5 135.0
-75.1111111111111 56.333333333333336 130.0
-76.67777777777778 58.06666666666667 134.0
-76.5 58.5 135.0
-74.06666666666666 57.2 132.0
-71.66666666666667 55.9 129.0
-72.05000000000001 56.766666666666666 131.0
-68.6 54.6 126.0
-71.13333333333333 57.2 132.0
-66.13333333333333 53.733333333333334 124.0
-67.02777777777779 55.03333333333334 127.0
-67.8888888888889 56.333333333333336 130.0
-66.13333333333334 55.46666666666667 128.0
-64.91111111111111 55.03333333333334 127.0
-64.20555555555555 55.03333333333334 127.0
-63.5 55.03333333333334 127.0
-61.80555555555556 54.16666666666667 125.0
-59.15555555555555 52.43333333333334 121.0
-62.833333333333336 56.333333333333336 130.0
-59.24444444444445 53.733333333333334 124.0
-58.55555555555556 53.733333333333334 124.0
-59.733333333333334 55.46666666666667 128.0
-56.71666666666667 53.300000000000004 123.0
-55.577777777777776 52.86666666666667 122.0
-54.45 52.43333333333334 121.0
-56.44444444444444 55.03333333333334 127.0
-54.86111111111111 54.16666666666667 125.0
-55.46666666666667 55.46666666666667 128.0
-53.47222222222222 54.16666666666667 125.0
-53.2 54.6 126.0
-50.833333333333336 52.86666666666667 122.0
-50.56666666666666 53.300000000000004 123.0
-49.88333333333333 53.300000000000004 123.0
-48.400000000000006 52.43333333333334 121.0
-49.30555555555556 54.16666666666667 125.0
-48.22222222222222 53.733333333333334 124.0
-47.150000000000006 53.300000000000004 123.0
-46.84444444444444 53.733333333333334 124.0
-45.78333333333333 53.300000000000004 123.0
-45.099999999999994 53.300000000000004 123.0
-44.416666666666664 53.300000000000004 123.0
-42.31111111111111 51.56666666666667 119.0
-42.349999999999994 52.43333333333334 121.0
-42.36666666666667 53.300000000000004 123.0
-41.00555555555556 52.43333333333334 121.0
-41.33333333333333 53.733333333333334 124.0
-38.67777777777778 51.13333333333333 118.0
-39.31111111111112 52.86666666666667 122.0
-37.36666666666667 51.13333333333333 118.0
-35.15555555555556 48.96666666666667 113.0
-36.361111111111114 51.56666666666667 119.0
-36.3 52.43333333333334 121.0
-35.922222222222224 52.86666666666667 122.0
-34.666666666666664 52.0 120.0
-33.43333333333333 51.13333333333333 118.0
-33.05555555555556 51.56666666666667 119.0
-32.666666666666664 52.0 120.0
-29.866666666666667 48.53333333333333 112.0
-30.28888888888889 50.266666666666666 116.0
-29.9 50.7 117.0
-30.25 52.43333333333334 121.0
-28.11111111111111 49.833333333333336 115.0
-27.472222222222225 49.833333333333336 115.0
-27.066666666666666 50.266666666666666 116.0
-27.105555555555554 51.56666666666667 119.0
-26.0 50.7 117.0
-24.483333333333334 48.96666666666667 113.0
-24.7 50.7 117.0
-23.227777777777778 48.96666666666667 113.0
-23.8 51.56666666666667 119.0
-21.77777777777778 48.53333333333333 112.0
-22.099999999999998 50.7 117.0
-20.9 49.4 114.0
-20.622222222222224 50.266666666666666 116.0
-20.322222222222223 51.13333333333333 118.0
-18.5 48.1 111.0
-18.52777777777778 49.833333333333336 115.0
-18.355555555555554 51.13333333333333 118.0
-18.0 52.0 120.0
-15.599999999999998 46.800000000000004 108.0
-16.52777777777778 51.56666666666667 119.0
-15.466666666666667 50.266666666666666 116.0
-14.31111111111111 48.53333333333333 112.0
-14.666666666666666 52.0 120.0
-13.533333333333333 50.266666666666666 116.0
-12.777777777777777 49.833333333333336 115.0
-12.35 50.7 117.0
-11.200000000000001 48.53333333333333 112.0
-10.955555555555556 50.266666666666666 116.0
-9.866666666666667 48.1 111.0
-9.416666666666666 48.96666666666667 113.0
-8.866666666666667 49.4 114.0
-8.305555555555555 49.833333333333336 115.0
-7.8 50.7 117.0
-6.905555555555555 48.96666666666667 113.0
-6.277777777777778 48.96666666666667 113.0
-6.050000000000001 52.43333333333334 121.0
-5.288888888888889 51.56666666666667 119.0
-4.355555555555556 48.53333333333333 112.0
-3.7666666666666666 48.96666666666667 113.0
-3.222222222222222 50.266666666666666 116.0
-2.511111111111111 48.96666666666667 113.0
-1.9333333333333333 50.266666666666666 116.0
-1.2666666666666666 49.4 114.0
-0.6277777777777778 48.96666666666667 113.0
0.0 50.7 117.0
0.6444444444444445 50.266666666666666 116.0
1.2666666666666666 49.4 114.0
1.9 49.4 114.0
2.555555555555556 49.833333333333336 115.0
3.25 50.7 117.0
3.9 50.7 117.0
4.511111111111111 50.266666666666666 116.0
5.155555555555556 50.266666666666666 116.0
5.7 49.4 114.0
6.5 50.7 117.0
7.1499999999999995 50.7 117.0
7.733333333333333 50.266666666666666 116.0
8.305555555555555 49.833333333333336 115.0
8.78888888888889 48.96666666666667 113.0
9.666666666666666 50.266666666666666 116.0
10.133333333333333 49.4 114.0
11.049999999999999 50.7 117.0
11.5 49.833333333333336 115.0
12.561111111111112 51.56666666666667 119.0
13.0 50.7 117.0
13.533333333333333 50.266666666666666 116.0
14.177777777777777 50.266666666666666 116.0
14.566666666666666 49.4 114.0
15.333333333333334 49.833333333333336 115.0
15.833333333333334 49.4 114.0
17.044444444444444 51.13333333333333 118.0
17.4 50.266666666666666 116.0
18.044444444444444 50.266666666666666 116.0
18.85 50.7 117.0
19.333333333333332 50.266666666666666 116.0
20.666666666666668 52.0 120.0
21.155555555555555 51.56666666666667 119.0
21.816666666666666 51.56666666666667 119.0
21.72222222222222 49.833333333333336 115.0
23.13888888888889 51.56666666666667 119.0
23.6 51.13333333333333 118.0
24.05 50.7 117.0
25.122222222222224 51.56666666666667 119.0
26.433333333333334 52.86666666666667 122.0
27.333333333333332 53.300000000000004 123.0
28.016666666666666 53.300000000000004 123.0
27.066666666666666 50.266666666666666 116.0
27.950000000000003 50.7 117.0
29.333333333333332 52.0 120.0
28.75 49.833333333333336 115.0
30.666666666666664 52.0 120.0
32.11666666666667 53.300000000000004 123.0
31.466666666666665 51.13333333333333 118.0
32.12222222222222 51.13333333333333 118.0
31.944444444444446 49.833333333333336 115.0
34.28333333333333 52.43333333333334 121.0
33.8 50.7 117.0
35.922222222222224 52.86666666666667 122.0
35.1 50.7 117.0
37.583333333333336 53.300000000000004 123.0
37.333333333333336 52.0 120.0
38.0 52.0 120.0
39.31111111111112 52.86666666666667 122.0
39.98888888888889 52.86666666666667 122.0
41.0 53.300000000000004 123.0
42.022222222222226 53.733333333333334 124.0
42.36666666666667 53.300000000000004 123.0
43.75 54.16666666666667 125.0
43.733333333333334 53.300000000000004 123.0
44.77777777777778 53.733333333333334 124.0
44.73333333333333 52.86666666666667 122.0
46.15555555555556 53.733333333333334 124.0
43.44444444444444 49.833333333333336 115.0
47.53333333333334 53.733333333333334 124.0
46.666666666666664 52.0 120.0
48.91111111111111 53.733333333333334 124.0
49.6 53.733333333333334 124.0
51.50555555555555 55.03333333333334 127.0
50.977777777777774 53.733333333333334 124.0
51.66666666666667 53.733333333333334 124.0
52.77777777777778 54.16666666666667 125.0
53.47222222222222 54.16666666666667 125.0
53.733333333333334 53.733333333333334 124.0
55.73888888888889 55.03333333333334 127.0
55.11111111111111 53.733333333333334 124.0
55.35 53.300000000000004 123.0
56.03333333333333 53.300000000000004 123.0
56.71666666666667 53.300000000000004 123.0
59.733333333333334 55.46666666666667 128.0
59.97222222222222 55.03333333333334 127.0
60.677777777777784 55.03333333333334 127.0
60.9 54.6 126.0
60.13333333333333 53.300000000000004 123.0
62.300000000000004 54.6 126.0
63.0 54.6 126.0
61.17222222222222 52.43333333333334 121.0
63.37777777777777 53.733333333333334 124.0
57.35000000000001 48.1 111.0
62.66666666666667 52.0 120.0
61.22222222222222 50.266666666666666 116.0
53.86666666666667 43.766666666666666 101.0
54.96666666666666 44.2 102.0
65.33333333333333 52.0 120.0
62.150000000000006 48.96666666666667 113.0
68.88888888888889 53.733333333333334 124.0
59.47777777777778 45.93333333333334 106.0
66.3 50.7 117.0
62.94444444444444 47.66666666666667 110.0
63.55555555555555 47.66666666666667 110.0
67.08333333333334 49.833333333333336 115.0
57.12222222222223 42.03333333333333 97.0
60.63333333333333 44.2 102.0
65.39999999999999 47.233333333333334 109.0
35.12222222222222 25.133333333333333 58.0
58.66666666666667 41.6 96.0
68.45 48.1 111.0
70.93333333333334 49.4 114.0
64.03333333333333 44.2 102.0
62.699999999999996 42.9 99.0
46.638888888888886 31.633333333333333 73.0
40.6 27.3 63.0
65.65 43.766666666666666 101.0
75.38888888888889 49.833333333333336 115.0
56.855555555555554 37.266666666666666 86.0
58.666666666666664 38.13333333333333 88.0
70.58333333333334 45.5 105.0
69.81111111111112 44.63333333333333 103.0
64.23333333333333 40.733333333333334 94.0
77.15555555555555 48.53333333333333 112.0
68.05555555555556 42.46666666666667 98.0
72.1 44.63333333333333 103.0
73.37777777777778 45.06666666666667 104.0
83.2 50.7 117.0
70.95 42.9 99.0
70.77777777777777 42.46666666666667 98.0
82.23888888888888 48.96666666666667 113.0
93.13333333333333 55.03333333333334 127.0
79.80000000000001 46.800000000000004 108.0
82.63333333333334 48.1 111.0
78.75 45.5 105.0
73.28888888888889 42.03333333333333 97.0
75.35 42.9 99.0
85.86666666666667 48.53333333333333 112.0
85.71666666666667 48.1 111.0
87.11111111111111 48.53333333333333 112.0
87.73333333333333 48.53333333333333 112.0
97.03333333333333 53.300000000000004 123.0
94.53888888888888 51.56666666666667 119.0
100.80000000000001 54.6 126.0
101.5 54.6 126.0
100.57777777777778 53.733333333333334 124.0
101.26666666666667 53.733333333333334 124.0
99.48888888888888 52.43333333333334 121.0
92.71111111111111 48.53333333333333 112.0
102.5 53.300000000000004 123.0
81.37222222222222 42.03333333333333 97.0
93.73333333333333 48.1 111.0
96.05 48.96666666666667 113.0
97.53333333333333 49.4 114.0
96.44444444444446 48.53333333333333 112.0
97.93333333333334 48.96666666666667 113.0
99.43333333333334 49.4 114.0
90.41111111111111 44.63333333333333 103.0
82.14999999999999 40.300000000000004 93.0
-113.77777777777777 56.17777777777778 128.0
-132.5 65.83333333333333 150.0
-121.13333333333333 60.56666666666666 138.0
-142.17222222222222 71.53888888888889 163.0
-115.26666666666667 58.37222222222222 133.0
-82.66666666666667 42.13333333333333 96.0
-100.1 51.35 117.0
-116.45 60.12777777777778 137.0
-127.5111111111111 66.27222222222223 151.0
-86.40555555555555 45.205555555555556 103.0
-98.33333333333334 51.78888888888889 118.0
-112.57777777777777 59.68888888888889 136.0
-114.28888888888888 61.00555555555555 139.0
-102.08333333333333 54.86111111111111 125.0
-69.75555555555556 37.74444444444445 86.0
-109.55555555555556 59.68888888888889 136.0
-112.80000000000001 61.88333333333333 141.0
-100.89444444444443 55.73888888888889 127.0
-97.82222222222222 54.422222222222224 124.0
-104.96666666666667 58.81111111111111 134.0
-114.33333333333333 64.51666666666667 147.0
-86.4888888888889 49.15555555555555 112.0
-102.73333333333333 58.81111111111111 134.0
-95.13888888888889 54.86111111111111 125.0
-95.95555555555555 55.73888888888889 127.0
-93.0 54.422222222222224 124.0
-96.03333333333333 56.61666666666667 129.0
-86.45 51.35 117.0
-88.0 52.666666666666664 120.0
-90.24444444444444 54.422222222222224 124.0
-88.11111111111111 53.544444444444444 122.0
-86.71666666666667 53.105555555555554 121.0
-84.62222222222222 52.227777777777774 119.0
-86.07777777777778 53.544444444444444 122.0
-86.1 53.983333333333334 123.0
-85.41666666666666 53.983333333333334 123.0
-81.97777777777777 52.227777777777774 119.0
-79.95 51.35 117.0
-80.65555555555557 52.227777777777774 119.0
-74.61666666666667 48.71666666666667 111.0
-76.66666666666666 50.47222222222222 115.0
-81.97777777777777 54.422222222222224 124.0
-79.32222222222222 53.105555555555554 121.0
-81.9 55.3 126.0
-78.62222222222223 53.544444444444444 122.0
-79.8611111111111 54.86111111111111 125.0
-79.16666666666666 54.86111111111111 125.0
-82.86666666666666 57.93333333333333 132.0
-81.5111111111111 57.49444444444445 131.0
-76.46666666666667 54.422222222222224 124.0
-78.83333333333334 56.61666666666667 129.0
-76.3 55.3 126.0
-78.0 57.05555555555556 130.0
-72.52222222222223 53.544444444444444 122.0
-74.2 55.3 126.0
-78.75 59.25 135.0
-75.1111111111111 57.05555555555556 130.0
-76.67777777777778 58.81111111111111 134.0
-76.5 59.25 135.0
-74.06666666666666 57.93333333333333 132.0
-71.66666666666667 56.61666666666667 129.0
-72.05000000000001 57.49444444444445 131.0
-68.6 55.3 126.0
-71.13333333333333 57.93333333333333 132.0
-66.13333333333333 54.422222222222224 124.0
-67.02777777777779 55.73888888888889 127.0
-67.8888888888889 57.05555555555556 130.0
-66.13333333333334 56.17777777777778 128.0
-64.91111111111111 55.73888888888889 127.0
-64.20555555555555 55.73888888888889 127.0
-63.5 55.73888888888889 127.0
-61.80555555555556 54.86111111111111 125.0
-59.15555555555555 53.105555555555554 121.0
-62.833333333333336 57.05555555555556 130.0
-59.24444444444445 54.422222222222224 124.0
-58.55555555555556 54.422222222222224 124.0
-59.733333333333334 56.17777777777778 128.0
-56.71666666666667 53.983333333333334 123.0
-55.577777777777776 53.544444444444444 122.0
-54.45 53.105555555555554 121.0
-56.44444444444444 55.73888888888889 127.0
-54.86111111111111 54.86111111111111 125.0
-55.46666666666667 56.17777777777778 128.0
-53.47222222222222 54.86111111111111 125.0
-53.2 55.3 126.0
-50.833333333333336 53.544444444444444 122.0
-50.56666666666666 53.983333333333334 123.0
-49.88333333333333 53.983333333333334 123.0
-48.400000000000006 53.105555555555554 121.0
-49.30555555555556 54.86111111111111 125.0
-48.22222222222222 54.422222222222224 124.0
-47.150000000000006 53.983333333333334 123.0
-46.84444444444444 54.422222222222224 124.0
-45.78333333333333 53.983333333333334 123.0
-45.099999999999994 53.983333333333334 123.0
-44.416666666666664 53.983333333333334 123.0
-42.31111111111111 52.227777777777774 119.0
-42.349999999999994 53.105555555555554 121.0
-42.36666666666667 53.983333333333334 123.0
-41.00555555555556 53.105555555555554 121.0
-41.33333333333333 54.422222222222224 124.0
-38.67777777777778 51.78888888888889 118.0
-39.31111111111112 53.544444444444444 122.0
-37.36666666666667 51.78888888888889 118.0
-35.15555555555556 49.59444444444444 113.0
-36.361111111111114 52.227777777777774 119.0
-36.3 53.105555555555554 121.0
-35.922222222222224 53.544444444444444 122.0
-34.666666666666664 52.666666666666664 120.0
-33.43333333333333 51.78888888888889 118.0
-33.05555555555556 52.227777777777774 119.0
-32.666666666666664 52.666666666666664 120.0
-29.866666666666667 49.15555555555555 112.0
-30.28888888888889 50.91111111111111 116.0
-29.9 51.35 117.0
-30.25 53.105555555555554 121.0
-28.11111111111111 50.47222222222222 115.0
-27.472222222222225 50.47222222222222 115.0
-27.066666666666666 50.91111111111111 116.0
-27.105555555555554 52.227777777777774 119.0
-26.0 51.35 117.0
-24.483333333333334 49.59444444444444 113.0
-24.7 51.35 117.0
-23.227777777777778 49.59444444444444 113.0
-23.8 52.227777777777774 119.0
-21.77777777777778 49.15555555555555 112.0
-22.099999999999998 51.35 117.0
-20.9 50.03333333333333 114.0
-20.622222222222224 50.91111111111111 116.0
-20.322222222222223 51.78888888888889 118.0
-18.5 48.71666666666667 111.0
-18.52777777777778 50.47222222222222 115.0
-18.355555555555554 51.78888888888889 118.0
-18.0 52.666666666666664 120.0
-15.599999999999998 47.4 108.0
-16.52777777777778 52.227777777777774 119.0
-15.466666666666667 50.91111111111111 116.0
-14.31111111111111 49.15555555555555 112.0
-14.666666666666666 52.666666666666664 120.0
-13.533333333333333 50.91111111111111 116.0
-12.777777777777777 50.47222222222222 115.0
-12.35 51.35 117.0
-11.200000000000001 49.15555555555555 112.0
-10.955555555555556 50.91111111111111 116.0
-9.866666666666667 48.71666666666667 111.0
-9.416666666666666 49.59444444444444 113.0
-8.866666666666667 50.03333333333333 114.0
-8.305555555555555 50.47222222222222 115.0
-7.8 51.35 117.0
-6.905555555555555 49.59444444444444 113.0
-6.277777777777778 49.59444444444444 113.0
-6.050000000000001 53.105555555555554 121.0
-5.288888888888889 52.227777777777774 119.0
-4.355555555555556 49.15555555555555 112.0
-3.7666666666666666 49.59444444444444 113.0
-3.222222222222222 50.91111111111111 116.0
-2.511111111111111 49.59444444444444 113.0
-1.9333333333333333 50.91111111111111 116.0
-1.2666666666666666 50.03333333333333 114.0
-0.6277777777777778 49.59444444444444 113.0
0.0 51.35 117.0
0.6444444444444445 50.91111111111111 116.0
1.2666666666666666 50.03333333333333 114.0
1.9 50.03333333333333 114.0
2.555555555555556 50.47222222222222 115.0
3.25 51.35 117.0
3.9 51.35 117.0
4.511111111111111 50.91111111111111 116.0
5.155555555555556 50.91111111111111 116.0
5.7 50.03333333333333 114.0
6.5 51.35 117.0
7.1499999999999995 51.35 117.0
7.733333333333333 50.91111111111111 116.0
8.305555555555555 50.47222222222222 115.0
8.78888888888889 49.59444444444444 113.0
9.666666666666666 50.91111111111111 116.0
10.133333333333333 50.03333333333333 114.0
11.049999999999999 51.35 117.0
11.5 50.47222222222222 115.0
12.561111111111112 52.227777777777774 119.0
13.0 51.35 117.0
13.533333333333333 50.91111111111111 116.0
14.177777777777777 50.91111111111111 116.0
14.566666666666666 50.03333333333333 114.0
15.333333333333334 50.47222222222222 115.0
15.833333333333334 50.03333333333333 114.0
17.044444444444444 51.78888888888889 118.0
17.4 50.91111111111111 116.0
18.044444444444444 50.91111111111111 116.0
18.85 51.35 117.0
19.333333333333332 50.91111111111111 116.0
20.666666666666668 52.666666666666664 120.0
21.155555555555555 52.227777777777774 119.0
21.816666666666666 52.227777777777774 119.0
21.72222222222222 50.47222222222222 115.0
23.13888888888889 52.227777777777774 119.0
23.6 51.78888888888889 118.0
24.05 51.35 117.0
25.122222222222224 52.227777777777774 119.0
26.433333333333334 53.544444444444444 122.0
27.333333333333332 53.983333333333334 123.0
28.016666666666666 53.983333333333334 123.0
27.066666666666666 50.91111111111111 116.0
27.950000000000003 51.35 117.0
29.333333333333332 52.666666666666664 120.0
28.75 50.47222222222222 115.0
30.666666666666664 52.666666666666664 120.0
32.11666666666667 53.983333333333334 123.0
31.466666666666665 51.78888888888889 118.0
32.12222222222222 51.78888888888889 118.0
31.944444444444446 50.47222222222222 115.0
34.28333333333333 53.105555555555554 121.0
33.8 51.35 117.0
35.922222222222224 53.544444444444444 122.0
35.1 51.35 117.0
37.583333333333336 53.983333333333334 123.0
37.333333333333336 52.666666666666664 120.0
38.0 52.666666666666664 120.0
39.31111111111112 53.544444444444444 122.0
39.98888888888889 53.544444444444444 122.0
41.0 53.983333333333334 123.0
42.022222222222226 54.422222222222224 124.0
42.36666666666667 53.983333333333334 123.0
43.75 54.86111111111111 125.0
43.733333333333334 53.983333333333334 123.0
44.77777777777778 54.422222222222224 124.0
44.73333333333333 53.544444444444444 122.0
46.15555555555556 54.422222222222224 124.0
43.44444444444444 50.47222222222222 115.0
47.53333333333334 54.422222222222224 124.0
46.666666666666664 52.666666666666664 120.0
48.91111111111111 54.422222222222224 124.0
49.6 54.422222222222224 124.0
51.50555555555555 55.73888888888889 127.0
50.977777777777774 54.422222222222224 124.0
51.66666666666667 54.422222222222224 124.0
52.77777777777778 54.86111111111111 125.0
53.47222222222222 54.86111111111111 125.0
53.733333333333334 54.422222222222224 124.0
55.73888888888889 55.73888888888889 127.0
55.11111111111111 54.422222222222224 124.0
55.35 53.983333333333334 123.0
56.03333333333333 53.983333333333334 123.0
56.71666666666667 53.983333333333334 123.0
59.733333333333334 56.17777777777778 128.0
59.97222222222222 55.73888888888889 127.0
60.677777777777784 55.73888888888889 127.0
60.9 55.3 126.0
60.13333333333333 53.983333333333334 123.0
62.300000000000004 55.3 126.0
63.0 55.3 126.0
61.17222222222222 53.105555555555554 121.0
63.37777777777777 54.422222222222224 124.0
57.35000000000001 48.71666666666667 111.0
62.66666666666667 52.666666666666664 120.0
61.22222222222222 50.91111111111111 116.0
53.86666666666667 44.327777777777776 101.0
54.96666666666666 44.766666666666666 102.0
65.33333333333333 52.666666666666664 120.0
62.150000000000006 49.59444444444444 113.0
68.88888888888889 54.422222222222224 124.0
59.47777777777778 46.52222222222222 106.0
66.3 51.35 117.0
62.94444444444444 48.27777777777778 110.0
63.55555555555555 48.27777777777778 110.0
67.08333333333334 50.47222222222222 115.0
57.12222222222223 42.57222222222222 97.0
60.63333333333333 44.766666666666666 102.0
65.39999999999999 47.83888888888889 109.0
35.12222222222222 25.455555555555556 58.0
58.66666666666667 42.13333333333333 96.0
68.45 48.71666666666667 111.0
70.93333333333334 50.03333333333333 114.0
64.03333333333333 44.766666666666666 102.0
62.699999999999996 43.45 99.0
46.638888888888886 32.03888888888889 73.0
40.6 27.65 63.0
65.65 44.327777777777776 101.0
75.38888888888889 50.47222222222222 115.0
56.855555555555554 37.74444444444445 86.0
58.666666666666664 38.62222222222222 88.0
70.58333333333334 46.083333333333336 105.0
69.81111111111112 45.205555555555556 103.0
64.23333333333333 41.25555555555555 94.0
77.15555555555555 49.15555555555555 112.0
68.05555555555556 43.01111111111111 98.0
72.1 45.205555555555556 103.0
73.37777777777778 45.644444444444446 104.0
83.2 51.35 117.0
70.95 43.45 99.0
70.77777777777777 43.01111111111111 98.0
82.23888888888888 49.59444444444444 113.0
93.13333333333333 55.73888888888889 127.0
79.80000000000001 47.4 108.0
82.63333333333334 48.71666666666667 111.0
78.75 46.083333333333336 105.0
73.28888888888889 42.57222222222222 97.0
75.35 43.45 99.0
85.86666666666667 49.15555555555555 112.0
85.71666666666667 48.71666666666667 111.0
87.11111111111111 49.15555555555555 112.0
87.73333333333333 49.15555555555555 112.0
97.03333333333333 53.983333333333334 123.0
94.53888888888888 52.227777777777774 119.0
100.80000000000001 55.3 126.0
101.5 55.3 126.0
100.57777777777778 54.422222222222224 124.0
101.26666666666667 54.422222222222224 124.0
99.48888888888888 53.105555555555554 121.0
92.71111111111111 49.15555555555555 112.0
102.5 53.983333333333334 123.0
81.37222222222222 42.57222222222222 97.0
93.73333333333333 48.71666666666667 111.0
96.05 49.59444444444444 113.0
97.53333333333333 50.03333333333333 114.0
96.44444444444446 49.15555555555555 112.0
97.93333333333334 49.59444444444444 113.0
99.43333333333334 50.03333333333333 114.0
90.41111111111111 45.205555555555556 103.0
82.14999999999999 40.81666666666666 93.0
-176.88888888888889 88.44444444444444 199.0
-101.58333333333333 51.11111111111111 115.0
-107.96666666666667 54.666666666666664 123.0
-122.11111111111111 62.22222222222222 140.0
-115.26666666666667 59.11111111111111 133.0
-99.02777777777779 51.11111111111111 115.0
-109.5111111111111 56.888888888888886 128.0
-92.64999999999999 48.44444444444444 109.0
-115.68888888888888 60.888888888888886 137.0
-36.07222222222222 19.11111111111111 43.0
-97.5 52.0 117.0
-108.43888888888888 58.22222222222222 131.0
-119.22222222222221 64.44444444444444 145.0
-124.13333333333333 67.55555555555556 152.0
-102.2 56.0 126.0
-107.94444444444444 59.55555555555555 134.0
-107.2 59.55555555555555 134.0
-108.04444444444444 60.44444444444444 136.0
-89.14444444444445 50.22222222222222 113.0
-112.8 64.0 144.0
-98.77777777777779 56.44444444444444 127.0
-98.07222222222222 56.44444444444444 127.0
-98.13333333333334 56.888888888888886 128.0
-95.89999999999999 56.0 126.0
-99.73333333333333 58.666666666666664 132.0
-93.0 55.11111111111111 124.0
-89.33333333333334 53.33333333333333 120.0
-90.14444444444445 54.22222222222222 122.0
-90.93333333333332 55.11111111111111 124.0
-81.5111111111111 49.77777777777777 112.0
-88.83333333333333 54.666666666666664 123.0
-89.58333333333333 55.55555555555555 125.0
-82.4888888888889 51.55555555555555 116.0
-81.1388888888889 51.11111111111111 115.0
-81.19999999999999 51.55555555555555 116.0
-82.63888888888889 52.888888888888886 119.0
-78.53333333333333 50.666666666666664 114.0
-77.21666666666667 50.22222222222222 113.0
-83.36666666666667 54.666666666666664 123.0
-77.97777777777779 51.55555555555555 116.0
-78.66666666666666 52.44444444444444 118.0
-79.99444444444444 53.77777777777777 121.0
-78.0111111111111 52.888888888888886 119.0
-81.25 55.55555555555555 125.0
-83.77777777777779 57.77777777777777 130.0
-78.58333333333333 54.666666666666664 123.0
-77.89999999999999 54.666666666666664 123.0
-82.2388888888889 58.22222222222222 131.0
-81.5111111111111 58.22222222222222 131.0
-81.4 58.666666666666664 132.0
-80.66666666666667 58.666666666666664 132.0
-78.11666666666666 57.33333333333333 129.0
-79.2 58.666666666666664 132.0
-79.65555555555555 59.55555555555555 134.0
-75.96666666666667 57.33333333333333 129.0
-78.16666666666667 59.55555555555555 134.0
-74.53333333333333 57.33333333333333 129.0
-76.67777777777778 59.55555555555555 134.0
-72.53333333333333 56.888888888888886 128.0
-74.06666666666666 58.666666666666664 132.0
-72.22222222222223 57.77777777777777 130.0
-75.35000000000001 60.888888888888886 137.0
-69.68888888888888 56.888888888888886 128.0
-71.13333333333333 58.666666666666664 132.0
-68.8 57.33333333333333 129.0
-67.02777777777779 56.44444444444444 127.0
-65.8 56.0 126.0
-69.75 60.0 135.0
-63.888888888888886 55.55555555555555 125.0
-64.20555555555555 56.44444444444444 127.0
-66.0 58.666666666666664 132.0
-62.794444444444444 56.44444444444444 127.0
-62.577777777777776 56.888888888888886 128.0
-60.9 56.0 126.0
-59.24444444444445 55.11111111111111 124.0
-59.97222222222222 56.44444444444444 127.0
-58.800000000000004 56.0 126.0
-57.63888888888889 55.55555555555555 125.0
-57.4 56.0 126.0
-55.800000000000004 55.11111111111111 124.0
-56.44444444444444 56.44444444444444 127.0
-53.983333333333334 54.666666666666664 123.0
-53.300000000000004 54.666666666666664 123.0
-52.61666666666667 54.666666666666664 123.0
-51.93333333333333 54.666666666666664 123.0
-52.91666666666667 56.44444444444444 127.0
-50.56666666666666 54.666666666666664 123.0
-50.28888888888889 55.11111111111111 124.0
-49.6 55.11111111111111 124.0
-48.91111111111111 55.11111111111111 124.0
-46.666666666666664 53.33333333333333 120.0
-47.53333333333334 55.11111111111111 124.0
-44.955555555555556 52.888888888888886 119.0
-44.66666666666667 53.33333333333333 120.0
-44.0 53.33333333333333 120.0
-43.69444444444444 53.77777777777777 121.0
-44.08888888888889 55.11111111111111 124.0
-43.05 54.666666666666664 123.0
-41.67777777777778 53.77777777777777 121.0
-41.68333333333334 54.666666666666664 123.0
-38.33333333333333 51.11111111111111 115.0
-38.67777777777778 52.44444444444444 118.0
-38.66666666666667 53.33333333333333 120.0
-38.63333333333333 54.22222222222222 122.0
-37.644444444444446 53.77777777777777 121.0
-36.66666666666667 53.33333333333333 120.0
-34.8 51.55555555555555 116.0
-35.03888888888889 52.888888888888886 119.0
-34.37777777777777 52.888888888888886 119.0
-34.0 53.33333333333333 120.0
-32.5 52.0 117.0
-32.39444444444444 52.888888888888886 119.0
-31.733333333333334 52.888888888888886 119.0
-30.55 52.0 117.0
-29.388888888888886 51.11111111111111 115.0
-29.25 52.0 117.0
-28.355555555555554 51.55555555555555 116.0
-28.42777777777778 52.888888888888886 119.0
-27.533333333333335 52.44444444444444 118.0
-27.333333333333332 53.33333333333333 120.0
-26.0 52.0 117.0
-25.133333333333333 51.55555555555555 116.0
-24.91111111111111 52.44444444444444 118.0
-24.87222222222222 53.77777777777777 121.0
-23.6 52.44444444444444 118.0
-23.333333333333332 53.33333333333333 120.0
-22.099999999999998 52.0 117.0
-21.083333333333332 51.11111111111111 115.0
-20.444444444444446 51.11111111111111 115.0
-20.322222222222223 52.44444444444444 118.0
-20.0 53.33333333333333 120.0
-19.011111111111113 52.44444444444444 118.0
-17.88888888888889 51.11111111111111 115.0
-17.4 51.55555555555555 116.0
-17.333333333333332 53.33333333333333 120.0
-15.972222222222223 51.11111111111111 115.0
-15.2 50.666666666666664 114.0
-14.822222222222221 51.55555555555555 116.0
-14.299999999999999 52.0 117.0
-13.416666666666666 51.11111111111111 115.0
-12.666666666666666 50.666666666666664 114.0
-11.927777777777777 50.22222222222222 113.0
-12.100000000000001 53.77777777777777 121.0
-11.144444444444444 52.44444444444444 118.0
-10.133333333333333 50.666666666666664 114.0
-9.666666666666666 51.55555555555555 116.0
-9.255555555555556 52.888888888888886 119.0
-8.305555555555555 51.11111111111111 115.0
-7.533333333333333 50.22222222222222 113.0
-7.027777777777778 51.11111111111111 115.0
-6.555555555555555 52.44444444444444 118.0
-5.7 50.666666666666664 114.0
-4.933333333333334 49.33333333333333 111.0
-4.472222222222222 51.11111111111111 115.0
-3.8333333333333335 51.11111111111111 115.0
-3.194444444444444 51.11111111111111 115.0
-2.533333333333333 50.666666666666664 114.0
-1.9333333333333333 51.55555555555555 116.0
-1.288888888888889 51.55555555555555 116.0
-0.65 52.0 117.0
0.0 51.11111111111111 115.0
0.6444444444444445 51.55555555555555 116.0
1.2555555555555555 50.22222222222222 113.0
1.9 50.666666666666664 114.0
2.511111111111111 50.22222222222222 113.0
3.194444444444444 51.11111111111111 115.0
3.8 50.666666666666664 114.0
4.55 52.0 117.0
5.155555555555556 51.55555555555555 116.0
5.95 52.888888888888886 119.0
6.444444444444444 51.55555555555555 116.0
6.966666666666667 50.666666666666664 114.0
7.733333333333333 51.55555555555555 116.0
8.305555555555555 51.11111111111111 115.0
9.1 52.0 117.0
10.0 53.33333333333333 120.0
10.311111111111112 51.55555555555555 116.0
10.672222222222222 50.22222222222222 113.0
11.200000000000001 49.77777777777777 112.0
12.561111111111112 52.888888888888886 119.0
12.666666666666666 50.666666666666664 114.0
13.883333333333333 52.888888888888886 119.0
14.177777777777777 51.55555555555555 116.0
15.205555555555554 52.888888888888886 119.0
15.466666666666667 51.55555555555555 116.0
16.25 52.0 117.0
17.333333333333332 53.33333333333333 120.0
17.25 51.11111111111111 115.0
18.044444444444444 51.55555555555555 116.0
19.333333333333336 53.33333333333333 120.0
20.5 54.666666666666664 123.0
19.977777777777778 51.55555555555555 116.0
21.155555555555555 52.888888888888886 119.0
21.633333333333333 52.44444444444444 118.0
22.099999999999998 52.0 117.0
22.555555555555557 51.55555555555555 116.0
23.400000000000002 52.0 117.0
24.255555555555553 52.44444444444444 118.0
25.333333333333332 53.33333333333333 120.0
26.0 53.33333333333333 120.0
25.777777777777775 51.55555555555555 116.0
26.877777777777776 52.44444444444444 118.0
27.066666666666666 51.55555555555555 116.0
28.666666666666668 53.33333333333333 120.0
29.08888888888889 52.888888888888886 119.0
29.75 52.888888888888886 119.0
30.666666666666664 53.33333333333333 120.0
31.072222222222223 52.888888888888886 119.0
32.0 53.33333333333333 120.0
33.48333333333333 54.666666666666664 123.0
31.944444444444446 51.11111111111111 115.0
35.13333333333333 55.11111111111111 124.0
34.37777777777777 52.888888888888886 119.0
36.51111111111111 55.11111111111111 124.0
35.699999999999996 52.888888888888886 119.0
36.97222222222223 53.77777777777777 121.0
37.022222222222226 52.888888888888886 119.0
38.949999999999996 54.666666666666664 123.0
39.63333333333333 54.666666666666664 123.0
40.644444444444446 55.11111111111111 124.0
41.0 54.666666666666664 123.0
41.68333333333334 54.666666666666664 123.0
42.36666666666667 54.666666666666664 123.0
42.349999999999994 53.77777777777777 121.0
44.44444444444444 55.55555555555555 125.0
45.138888888888886 55.55555555555555 125.0
45.83333333333333 55.55555555555555 125.0
45.78333333333333 54.666666666666664 123.0
46.08888888888889 54.22222222222222 122.0
48.300000000000004 56.0 126.0
49.0 56.0 126.0
48.91111111111111 55.11111111111111 124.0
47.6 52.888888888888886 119.0
50.69444444444444 55.55555555555555 125.0
50.15555555555555 54.22222222222222 122.0
53.333333333333336 56.888888888888886 128.0
51.93333333333333 54.666666666666664 123.0
53.47222222222222 55.55555555555555 125.0
55.46666666666667 56.888888888888886 128.0
53.983333333333334 54.666666666666664 123.0
55.55555555555555 55.55555555555555 125.0
58.050000000000004 57.33333333333333 129.0
57.4 56.0 126.0
57.177777777777784 55.11111111111111 124.0
57.4 54.666666666666664 123.0
59.02777777777778 55.55555555555555 125.0
59.72222222222223 55.55555555555555 125.0
61.38333333333333 56.44444444444444 127.0
60.62222222222222 55.11111111111111 124.0
63.28888888888889 56.888888888888886 128.0
62.0 55.11111111111111 124.0
65.21666666666667 57.33333333333333 129.0
61.84444444444444 53.77777777777777 121.0
63.03333333333334 54.22222222222222 122.0
63.711111111111116 54.22222222222222 122.0
59.111111111111114 49.77777777777777 112.0
60.266666666666666 50.22222222222222 113.0
57.66111111111111 47.55555555555555 107.0
62.06666666666666 50.666666666666664 114.0
63.800000000000004 51.55555555555555 116.0
70.0 56.0 126.0
64.52777777777777 51.11111111111111 115.0
61.766666666666666 48.44444444444444 109.0
57.794444444444444 44.888888888888886 101.0
64.71111111111111 49.77777777777777 112.0
65.91666666666667 50.22222222222222 113.0
57.711111111111116 43.55555555555555 98.0
64.2 48.0 108.0
67.2 49.77777777777777 112.0
70.24444444444444 51.55555555555555 116.0
63.55555555555556 46.22222222222222 104.0
65.36666666666667 47.11111111111111 106.0
69.06666666666666 49.33333333333333 111.0
64.03333333333333 45.33333333333333 102.0
63.33333333333333 44.44444444444444 100.0
63.24999999999999 44.0 99.0
75.4 52.0 117.0
39.0 26.666666666666664 60.0
66.86666666666666 45.33333333333333 102.0
79.99444444444444 53.77777777777777 121.0
78.0 52.0 117.0
69.91111111111111 46.22222222222222 104.0
69.13333333333334 45.33333333333333 102.0
69.7 45.33333333333333 102.0
75.08888888888889 48.44444444444444 109.0
82.63888888888889 52.888888888888886 119.0
67.19999999999999 42.666666666666664 96.0
82.55000000000001 52.0 117.0
77.51111111111112 48.44444444444444 109.0
80.98333333333333 50.22222222222222 113.0
78.72222222222221 48.44444444444444 109.0
76.41666666666666 46.666666666666664 105.0
93.13333333333333 56.44444444444444 127.0
90.88333333333334 54.666666666666664 123.0
84.86666666666667 50.666666666666664 114.0
93.75 55.55555555555555 125.0
100.48888888888888 59.11111111111111 133.0
93.61666666666666 54.666666666666664 123.0
86.63333333333334 50.22222222222222 113.0
88.80555555555556 51.11111111111111 115.0
91.0 52.0 117.0
97.91666666666667 55.55555555555555 125.0
98.61111111111111 55.55555555555555 125.0
96.92222222222222 54.22222222222222 122.0
101.60000000000001 56.44444444444444 127.0
96.66666666666667 53.33333333333333 120.0
92.46666666666667 50.666666666666664 114.0
98.0 53.33333333333333 120.0
94.55555555555556 51.11111111111111 115.0
97.67777777777778 52.44444444444444 118.0
90.83333333333334 48.44444444444444 109.0
98.9888888888889 52.44444444444444 118.0
94.57777777777778 49.77777777777777 112.0
101.14999999999999 52.888888888888886 119.0
93.25555555555555 48.44444444444444 109.0
101.61111111111111 52.44444444444444 118.0
108.33333333333334 55.55555555555555 125.0
102.92222222222222 52.44444444444444 118.0
85.14444444444445 43.11111111111111 97.0
71.55 36.0 81.0
-176.88888888888889 89.55 199.0
-101.58333333333333 51.75 115.0
-107.96666666666667 55.35 123.0
-122.11111111111111 63.0 140.0
-115.26666666666667 59.85 133.0
-99.02777777777779 51.75 115.0
-109.5111111111111 57.6 128.0
-92.64999999999999 49.050000000000004 109.0
-115.68888888888888 61.65 137.0
-36.07222222222222 19.35 43.0
-97.5 52.65 117.0
-108.43888888888888 58.95 131.0
-119.22222222222221 65.25 145.0
-124.13333333333333 68.4 152.0
-102.2 56.7 126.0
-107.94444444444444 60.300000000000004 134.0
-107.2 60.300000000000004 134.0
-108.04444444444444 61.2 136.0
-89.14444444444445 50.85 113.0
-112.8 64.8 144.0
-98.77777777777779 57.15 127.0
-98.07222222222222 57.15 127.0
-98.13333333333334 57.6 128.0
-95.89999999999999 56.7 126.0
-99.73333333333333 59.4 132.0
-93.0 55.800000000000004 124.0
-89.33333333333334 54.0 120.0
-90.14444444444445 54.9 122.0
-90.93333333333332 55.800000000000004 124.0
-81.5111111111111 50.4 112.0
-88.83333333333333 55.35 123.0
-89.58333333333333 56.25 125.0
-82.4888888888889 52.2 116.0
-81.1388888888889 51.75 115.0
-81.19999999999999 52.2 116.0
-82.63888888888889 53.550000000000004 119.0
-78.53333333333333 51.300000000000004 114.0
-77.21666666666667 50.85 113.0
-83.36666666666667 55.35 123.0
-77.97777777777779 52.2 116.0
-78.66666666666666 53.1 118.0
-79.99444444444444 54.45 121.0
-78.0111111111111 53.550000000000004 119.0
-81.25 56.25 125.0
-83.77777777777779 58.5 130.0
-78.58333333333333 55.35 123.0
-77.89999999999999 55.35 123.0
-82.2388888888889 58.95 131.0
-81.5111111111111 58.95 131.0
-81.4 59.4 132.0
-80.66666666666667 59.4 132.0
-78.11666666666666 58.050000000000004 129.0
-79.2 59.4 132.0
-79.65555555555555 60.300000000000004 134.0
-75.96666666666667 58.050000000000004 129.0
-78.16666666666667 60.300000000000004 134.0
-74.53333333333333 58.050000000000004 129.0
-76.67777777777778 60.300000000000004 134.0
-72.53333333333333 57.6 128.0
-74.06666666666666 59.4 132.0
-72.22222222222223 58.5 130.0
-75.35000000000001 61.65 137.0
-69.68888888888888 57.6 128.0
-71.13333333333333 59.4 132.0
-68.8 58.050000000000004 129.0
-67.02777777777779 57.15 127.0
-65.8 56.7 126.0
-69.75 60.75 135.0
-63.888888888888886 56.25 125.0
-64.20555555555555 57.15 127.0
-66.0 59.4 132.0
-62.794444444444444 57.15 127.0
-62.577777777777776 57.6 128.0
-60.9 56.7 126.0
-59.24444444444445 55.800000000000004 124.0
-59.97222222222222 57.15 127.0
-58.800000000000004 56.7 126.0
-57.63888888888889 56.25 125.0
-57.4 56.7 126.0
-55.800000000000004 55.800000000000004 124.0
-56.44444444444444 57.15 127.0
-53.983333333333334 55.35 123.0
-53.300000000000004 55.35 123.0
-52.61666666666667 55.35 123.0
-51.93333333333333 55.35 123.0
-52.91666666666667 57.15 127.0
-50.56666666666666 55.35 123.0
-50.28888888888889 55.800000000000004 124.0
-49.6 55.800000000000004 124.0
-48.91111111111111 55.800000000000004 124.0
-46.666666666666664 54.0 120.0
-47.53333333333334 55.800000000000004 124.0
-44.955555555555556 53.550000000000004 119.0
-44.66666666666667 54.0 120.0
-44.0 54.0 120.0
-43.69444444444444 54.45 121.0
-44.08888888888889 55.800000000000004 124.0
-43.05 55.35 123.0
-41.67777777777778 54.45 121.0
-41.68333333333334 55.35 123.0
-38.33333333333333 51.75 115.0
-38.67777777777778 53.1 118.0
-38.66666666666667 54.0 120.0
-38.63333333333333 54.9 122.0
-37.644444444444446 54.45 121.0
-36.66666666666667 54.0 120.0
-34.8 52.2 116.0
-35.03888888888889 53.550000000000004 119.0
-34.37777777777777 53.550000000000004 119.0
-34.0 54.0 120.0
-32.5 52.65 117.0
-32.39444444444444 53.550000000000004 119.0
-31.733333333333334 53.550000000000004 119.0
-30.55 52.65 117.0
-29.388888888888886 51.75 115.0
-29.25 52.65 117.0
-28.355555555555554 52.2 116.0
-28.42777777777778 53.550000000000004 119.0
-27.533333333333335 53.1 118.0
-27.333333333333332 54.0 120.0
-26.0 52.65 117.0
-25.133333333333333 52.2 116.0
-24.91111111111111 53.1 118.0
-24.87222222222222 54.45 121.0
-23.6 53.1 118.0
-23.333333333333332 54.0 120.0
-22.099999999999998 52.65 117.0
-21.083333333333332 51.75 115.0
-20.444444444444446 51.75 115.0
-20.322222222222223 53.1 118.0
-20.0 54.0 120.0
-19.011111111111113 53.1 118.0
-17.88888888888889 51.75 115.0
-17.4 52.2 116.0
-17.333333333333332 54.0 120.0
-15.972222222222223 51.75 115.0
-15.2 51.300000000000004 114.0
-14.822222222222221 52.2 116.0
-14.299999999999999 52.65 117.0
-13.416666666666666 51.75 115.0
-12.666666666666666 51.300000000000004 114.0
-11.927777777777777 50.85 113.0
-12.100000000000001 54.45 121.0
-11.144444444444444 53.1 118.0
-10.133333333333333 51.300000000000004 114.0
-9.666666666666666 52.2 116.0
-9.255555555555556 53.550000000000004 119.0
-8.305555555555555 51.75 115.0
-7.533333333333333 50.85 113.0
-7.027777777777778 51.75 115.0
-6.555555555555555 53.1 118.0
-5.7 51.300000000000004 114.0
-4.933333333333334 49.95 111.0
-4.472222222222222 51.75 115.0
-3.8333333333333335 51.75 115.0
-3.194444444444444 51.75 115.0
-2.533333333333333 51.300000000000004 114.0
-1.9333333333333333 52.2 116.0
-1.288888888888889 52.2 116.0
-0.65 52.65 117.0
0.0 51.75 115.0
0.6444444444444445 52.2 116.0
1.2555555555555555 50.85 113.0
1.9 51.300000000000004 114.0
2.511111111111111 50.85 113.0
3.194444444444444 51.75 115.0
3.8 51.300000000000004 114.0
4.55 52.65 117.0
5.155555555555556 52.2 116.0
5.95 53.550000000000004 119.0
6.444444444444444 52.2 116.0
6.966666666666667 51.300000000000004 114.0
7.733333333333333 52.2 116.0
8.305555555555555 51.75 115.0
9.1 52.65 117.0
10.0 54.0 120.0
10.311111111111112 52.2 116.0
10.672222222222222 50.85 113.0
11.200000000000001 50.4 112.0
12.561111111111112 53.550000000000004 119.0
12.666666666666666 51.300000000000004 114.0
13.883333333333333 53.550000000000004 119.0
14.177777777777777 52.2 116.0
15.205555555555554 53.550000000000004 119.0
15.466666666666667 52.2 116.0
16.25 52.65 117.0
17.333333333333332 54.0 120.0
17.25 51.75 115.0
18.044444444444444 52.2 116.0
19.333333333333336 54.0 120.0
20.5 55.35 123.0
19.977777777777778 52.2 116.0
21.155555555555555 53.550000000000004 119.0
21.633333333333333 53.1 118.0
22.099999999999998 52.65 117.0
22.555555555555557 52.2 116.0
23.400000000000002 52.65 117.0
24.255555555555553 53.1 118.0
25.333333333333332 54.0 120.0
26.0 54.0 120.0
25.777777777777775 52.2 116.0
26.877777777777776 53.1 118.0
27.066666666666666 52.2 116.0
28.666666666666668 54.0 120.0
29.08888888888889 53.550000000000004 119.0
29.75 53.550000000000004 119.0
30.666666666666664 54.0 120.0
31.072222222222223 53.550000000000004 119.0
32.0 54.0 120.0
33.48333333333333 55.35 123.0
31.944444444444446 51.75 115.0
35.13333333333333 55.800000000000004 124.0
34.37777777777777 53.550000000000004 119.0
36.51111111111111 55.800000000000004 124.0
35.699999999999996 53.550000000000004 119.0
36.97222222222223 54.45 121.0
37.022222222222226 53.550000000000004 119.0
38.949999999999996 55.35 123.0
39.63333333333333 55.35 123.0
40.644444444444446 55.800000000000004 124.0
41.0 55.35 123.0
41.68333333333334 55.35 123.0
42.36666666666667 55.35 123.0
42.349999999999994 54.45 121.0
44.44444444444444 56.25 125.0
45.138888888888886 56.25 125.0
45.83333333333333 56.25 125.0
45.78333333333333 55.35 123.0
46.08888888888889 54.9 122.0
48.300000000000004 56.7 126.0
49.0 56.7 126.0
48.91111111111111 55.800000000000004 124.0
47.6 53.550000000000004 119.0
50.69444444444444 56.25 125.0
50.15555555555555 54.9 122.0
53.333333333333336 57.6 128.0
51.93333333333333 55.35 123.0
53.47222222222222 56.25 125.0
55.46666666666667 57.6 128.0
53.983333333333334 55.35 123.0
55.55555555555555 56.25 125.0
