ply
format ascii 1.0
element vertex 848
property float x
property float y
property float z
property float nx
property float ny
property float nz
end_header
0.085457 0.266425 0.748000 -0.735373 0.318182 -0.598320
0.087117 0.265356 0.745000 -0.602525 0.201540 -0.772234
0.089120 0.265356 0.745000 -0.309819 0.175283 -0.934499
0.091000 0.265000 0.744000 -0.508018 0.095361 -0.856051
0.092875 0.264644 0.743000 -0.471535 -0.000318 -0.881847
0.094745 0.264288 0.742000 -0.379006 0.054824 -0.923769
0.096609 0.263931 0.741000 -0.171083 0.210903 -0.962419
0.098601 0.263931 0.741000 -0.147375 0.235983 -0.960517
0.100593 0.263931 0.741000 0.193963 0.213952 -0.957394
0.102723 0.264288 0.742000 0.223804 -0.014553 -0.974525
0.104718 0.264288 0.742000 0.427579 -0.010477 -0.903917
0.107000 0.265000 0.744000 0.605850 -0.237133 -0.759417
0.109293 0.265712 0.746000 0.662687 -0.261507 -0.701755
0.111895 0.267137 0.750000 0.858434 -0.164134 -0.485954
0.114519 0.268562 0.754000 0.902104 -0.184377 -0.390146
0.118710 0.273548 0.768000 -0.988264 -0.000000 0.152756
-0.122008 0.264847 0.738000 -0.795663 -0.559941 -0.231054
-0.119048 0.262694 0.732000 -0.766861 -0.481156 -0.424751
-0.116441 0.261258 0.728000 -0.660774 -0.286877 -0.693598
-0.114169 0.260540 0.726000 -0.577638 -0.326911 -0.747973
-0.112063 0.260181 0.725000 -0.543006 -0.462519 -0.700872
-0.109962 0.259823 0.724000 -0.160281 -0.481274 -0.861792
-0.108165 0.260181 0.725000 0.108494 -0.080522 -0.990831
-0.106216 0.260181 0.725000 0.449438 -0.123160 -0.884781
-0.104411 0.260540 0.726000 0.235406 0.217269 -0.947300
-0.102319 0.260181 0.725000 0.000612 0.369498 -0.929232
-0.100370 0.260181 0.725000 0.190658 0.449891 -0.872495
-0.098421 0.260181 0.725000 0.572798 0.160955 -0.803739
-0.096738 0.260899 0.727000 0.502491 0.119924 -0.856225
-0.094914 0.261258 0.728000 0.753811 -0.352397 -0.554604
-0.093340 0.262335 0.731000 0.854299 -0.322353 -0.407752
-0.091750 0.263411 0.734000 0.940518 -0.059231 -0.334542
-0.090755 0.266282 0.742000 0.968623 0.205709 -0.139478
-0.097837 0.314730 0.877000 0.947323 0.196131 -0.253201
-0.096133 0.316883 0.883000 0.905701 0.339339 -0.254078
0.089239 0.267718 0.746000 -0.486878 0.310190 -0.816537
0.091000 0.267000 0.744000 -0.390734 0.151659 -0.907924
0.098734 0.266282 0.742000 -0.016256 0.116421 -0.993067
0.100593 0.265923 0.741000 0.110156 -0.014509 -0.993808
0.102723 0.266282 0.742000 0.213868 -0.197315 -0.956727
0.104718 0.266282 0.742000 0.266478 -0.246685 -0.931738
0.106856 0.266641 0.743000 0.553639 -0.272570 -0.786886
0.109000 0.267000 0.744000 0.652390 -0.183266 -0.735391
0.111597 0.268435 0.748000 0.824145 -0.155919 -0.544495
0.114367 0.270230 0.753000 0.888281 -0.185795 -0.420044
0.118091 0.274177 0.764000 0.963749 -0.139036 -0.227720
0.124077 0.283149 0.789000 0.978455 -0.087528 -0.186990
-0.123992 0.266831 0.738000 -0.766317 -0.619202 -0.171312
-0.121016 0.264661 0.732000 -0.687120 -0.668275 -0.285086
-0.118560 0.263577 0.729000 -0.680683 -0.571360 -0.458497
-0.116281 0.262853 0.727000 -0.615705 -0.347923 -0.707006
-0.114012 0.262130 0.725000 -0.587004 -0.223079 -0.778243
-0.111754 0.261407 0.723000 -0.498091 -0.156586 -0.852869
-0.109659 0.261046 0.722000 0.355444 -0.108004 -0.928437
-0.107867 0.261407 0.723000 0.406454 -0.478300 -0.778475
-0.106070 0.261769 0.724000 0.236433 -0.417722 -0.877273
-0.104267 0.262130 0.725000 0.309025 -0.289165 -0.906028
-0.102460 0.262492 0.726000 0.333054 -0.214676 -0.918145
-0.100508 0.262492 0.726000 0.263993 0.107372 -0.958530
-0.098692 0.262853 0.727000 0.406183 0.210854 -0.889132
-0.096871 0.263215 0.728000 0.382380 -0.036609 -0.923280
-0.094914 0.263215 0.728000 0.688646 -0.048707 -0.723460
-0.093212 0.263938 0.730000 0.877780 -0.028563 -0.478211
-0.091750 0.265384 0.734000 0.946759 0.010770 -0.321763
-0.097726 0.316726 0.876000 0.947323 0.196131 -0.253201
-0.096351 0.319980 0.885000 0.909925 0.345667 -0.229242
0.102585 0.267915 0.741000 0.086665 -0.244894 -0.965669
0.104577 0.267915 0.741000 0.343682 -0.066610 -0.936721
0.106712 0.268277 0.742000 0.545739 -0.161346 -0.822275
0.109000 0.269000 0.744000 0.712558 -0.104066 -0.693852
0.111597 0.270446 0.748000 0.835860 -0.174155 -0.520585
0.114215 0.271892 0.752000 0.867368 -0.157248 -0.472172
0.117782 0.275508 0.762000 0.958319 -0.139868 -0.249120
0.123290 0.283462 0.784000 0.978455 -0.087528 -0.186990
-0.122816 0.266265 0.731000 -0.650991 -0.741672 -0.161660
-0.120520 0.265536 0.729000 -0.562631 -0.775946 -0.285228
-0.118235 0.264808 0.727000 -0.448497 -0.783793 -0.429556
-0.116121 0.264444 0.726000 -0.473405 -0.605379 -0.639847
-0.114012 0.264079 0.725000 -0.407380 -0.532350 -0.742054
-0.111909 0.263715 0.724000 -0.366682 -0.258830 -0.893617
-0.109962 0.263715 0.724000 -0.138155 -0.193971 -0.971230
-0.108016 0.263715 0.724000 -0.169359 -0.493733 -0.852963
-0.105923 0.263351 0.723000 0.137532 -0.630252 -0.764112
-0.104124 0.263715 0.724000 0.446268 -0.678006 -0.584083
-0.102319 0.264079 0.725000 0.376119 -0.627934 -0.681347
-0.100508 0.264444 0.726000 0.281664 -0.547763 -0.787795
-0.098556 0.264444 0.726000 0.429615 -0.511386 -0.744255
-0.096738 0.264808 0.727000 0.420982 -0.449909 -0.787627
-0.094914 0.265172 0.728000 0.681512 -0.065523 -0.728868
-0.093212 0.265901 0.730000 0.866104 0.062046 -0.495999
-0.091875 0.267722 0.735000 0.957885 0.137493 -0.252097
-0.099624 0.317624 0.872000 0.960941 0.203130 -0.187965
-0.098172 0.320538 0.880000 0.872395 0.411157 -0.264341
-0.097222 0.325273 0.893000 0.911061 0.358804 -0.203046
0.106856 0.270636 0.743000 0.555972 0.041441 -0.830167
0.109147 0.271364 0.745000 0.746639 -0.047630 -0.663522
0.111448 0.272093 0.747000 0.813986 -0.265583 -0.516616
0.114215 0.273914 0.752000 0.878002 -0.215605 -0.427349
0.117782 0.277556 0.762000 0.946184 -0.179827 -0.269069
0.123448 0.285934 0.785000 0.983808 -0.102186 -0.147238
-0.124952 0.268597 0.732000 -0.742080 -0.659191 -0.121592
-0.122144 0.266762 0.727000 -0.538307 -0.810523 -0.230822
-0.119859 0.266028 0.725000 -0.340456 -0.890142 -0.302881
-0.117747 0.265661 0.724000 -0.277307 -0.867793 -0.412355
-0.115801 0.265661 0.724000 -0.276189 -0.868196 -0.412256
-0.113698 0.265294 0.723000 -0.120258 -0.856786 -0.501454
-0.111754 0.265294 0.723000 -0.255106 -0.635206 -0.728996
-0.109659 0.264927 0.722000 -0.205982 -0.683058 -0.700717
-0.107718 0.264927 0.722000 -0.248807 -0.708128 -0.660795
-0.105630 0.264560 0.721000 0.057251 -0.723077 -0.688390
-0.103836 0.264927 0.722000 0.448092 -0.680019 -0.580335
-0.102036 0.265294 0.723000 0.447460 -0.679029 -0.581978
-0.100231 0.265661 0.724000 0.446829 -0.678040 -0.583615
-0.098421 0.266028 0.725000 0.384313 -0.618193 -0.685669
-0.096605 0.266395 0.726000 0.723596 -0.237093 -0.648225
-0.095044 0.267496 0.729000 0.783881 0.167579 -0.597870
-0.093340 0.268230 0.731000 0.843123 0.286901 -0.454787
-0.092125 0.270431 0.737000 0.954872 0.233869 -0.183095
-0.100766 0.323637 0.882000 0.858856 0.446846 -0.250391
0.111298 0.273734 0.746000 0.836032 -0.222959 -0.501338
0.114063 0.275569 0.751000 0.871069 -0.239384 -0.428876
0.117628 0.279238 0.761000 0.946184 -0.179827 -0.269069
0.124234 0.289879 0.790000 0.983808 -0.102186 -0.147238
-0.127093 0.270934 0.733000 -0.850534 -0.516392 -0.099655
-0.123927 0.268347 0.726000 -0.709250 -0.689496 -0.146836
-0.121472 0.267238 0.723000 -0.542708 -0.751854 -0.374410
-0.119528 0.267238 0.723000 -0.222910 -0.861026 -0.457105
-0.117422 0.266868 0.722000 -0.253479 -0.867184 -0.428650
-0.115321 0.266499 0.721000 -0.283199 -0.846874 -0.450115
-0.113226 0.266129 0.720000 0.080260 -0.872109 -0.482684
-0.111599 0.266868 0.722000 -0.021703 -0.856031 -0.516469
-0.109507 0.266499 0.721000 -0.187452 -0.787253 -0.587448
-0.107569 0.266499 0.721000 -0.238642 -0.760228 -0.604238
-0.105484 0.266129 0.720000 0.239618 -0.739120 -0.629511
-0.103692 0.266499 0.721000 0.437705 -0.601909 -0.667922
-0.101895 0.266868 0.722000 0.503200 -0.580739 -0.639947
-0.100093 0.267238 0.723000 0.538603 -0.566747 -0.623461
-0.098285 0.267608 0.724000 0.681863 -0.165418 -0.712531
-0.096605 0.268347 0.726000 0.801250 0.021379 -0.597948
-0.095175 0.269825 0.730000 0.831174 0.301674 -0.467058
-0.093595 0.270934 0.733000 0.872311 0.289562 -0.393989
-0.092625 0.273891 0.741000 0.952850 0.273892 -0.130613
0.113456 0.276109 0.747000 0.834100 -0.320327 -0.449074
0.117319 0.280544 0.759000 0.942414 -0.204357 -0.264754
0.124234 0.292003 0.790000 0.983808 -0.102186 -0.147238
-0.130648 0.276255 0.742000 -0.888795 -0.440876 -0.125183
-0.126399 0.271415 0.729000 -0.880860 -0.424793 -0.208894
-0.123586 0.269554 0.724000 -0.752258 -0.545906 -0.368910
-0.121136 0.268437 0.721000 -0.433484 -0.675118 -0.596915
-0.119032 0.268065 0.720000 -0.141740 -0.810463 -0.568384
-0.117097 0.268065 0.720000 -0.333329 -0.749601 -0.571830
-0.115001 0.267692 0.719000 -0.292921 -0.674247 -0.677929
-0.113069 0.267692 0.719000 -0.048721 -0.769945 -0.636248
-0.111136 0.267692 0.719000 0.011629 -0.845338 -0.534106
-0.109203 0.267692 0.719000 -0.085538 -0.862214 -0.499269
-0.107121 0.267320 0.718000 -0.056287 -0.790187 -0.610276
-0.105191 0.267320 0.718000 0.635438 -0.343328 -0.691625
-0.103548 0.268065 0.720000 0.562739 -0.406691 -0.719672
-0.101613 0.268065 0.720000 0.511462 -0.285906 -0.810348
-0.099954 0.268809 0.722000 0.753554 -0.001755 -0.657384
-0.098421 0.269926 0.725000 0.746756 0.140450 -0.650100
-0.096738 0.270671 0.727000 0.852000 0.175551 -0.493233
-0.095305 0.272160 0.731000 0.864014 0.270479 -0.424641
-0.093723 0.273277 0.734000 0.887663 0.287286 -0.359891
-0.093250 0.277745 0.746000 0.949957 0.290595 -0.114611
0.116700 0.281095 0.755000 0.935784 -0.281979 -0.211653
-0.129591 0.276000 0.736000 -0.891309 -0.437001 -0.120821
-0.125706 0.271875 0.725000 -0.834049 -0.425998 -0.350555
-0.123074 0.270375 0.721000 -0.744139 -0.433446 -0.508312
-0.120800 0.269625 0.719000 -0.343971 -0.494069 -0.798486
-0.118867 0.269625 0.719000 -0.242294 -0.568413 -0.786257
-0.116934 0.269625 0.719000 -0.380107 -0.598638 -0.705089
-0.114681 0.268875 0.717000 -0.026674 -0.478661 -0.877595
-0.112911 0.269250 0.718000 0.021578 -0.436172 -0.899604
-0.110827 0.268875 0.717000 -0.093125 -0.554022 -0.827277
-0.108899 0.268875 0.717000 -0.037364 -0.394121 -0.918299
-0.106972 0.268875 0.717000 0.256638 -0.097787 -0.961548
-0.105191 0.269250 0.718000 0.608225 -0.118833 -0.784819
-0.103548 0.270000 0.720000 0.557959 -0.106679 -0.822983
-0.101754 0.270375 0.721000 0.657591 -0.035787 -0.752524
-0.100093 0.271125 0.723000 0.826123 -0.008678 -0.563423
-0.098421 0.271875 0.725000 0.841870 0.059609 -0.536379
-0.096871 0.273000 0.728000 0.875365 0.152058 -0.458927
-0.095435 0.274500 0.732000 0.886152 0.223713 -0.405818
-0.094234 0.276750 0.738000 0.936518 0.269264 -0.224568
-0.128711 0.276090 0.731000 -0.891273 -0.407674 -0.198581
-0.125532 0.273446 0.724000 -0.820908 -0.400340 -0.407232
-0.123074 0.272313 0.721000 -0.749299 -0.420986 -0.511197
-0.120800 0.271558 0.719000 -0.592056 -0.551408 -0.587723
-0.118702 0.271180 0.718000 -0.209333 -0.751292 -0.625891
-0.116609 0.270802 0.717000 -0.191096 -0.518569 -0.833408
-0.114681 0.270802 0.717000 0.396840 -0.030310 -0.917387
-0.112911 0.271180 0.718000 0.029124 -0.009028 -0.999535
-0.110827 0.270802 0.717000 -0.230820 -0.014089 -0.972895
-0.108899 0.270802 0.717000 0.000000 0.000000 -1.000000
-0.106972 0.270802 0.717000 0.241064 -0.016213 -0.970374
-0.105191 0.271180 0.718000 0.583291 -0.053893 -0.810473
-0.103405 0.271558 0.719000 0.614006 -0.002384 -0.789298
-0.101613 0.271935 0.720000 0.654224 -0.031970 -0.755624
-0.099954 0.272691 0.722000 0.805718 0.010267 -0.592211
-0.098421 0.273824 0.725000 0.855162 0.077626 -0.512516
-0.096871 0.274957 0.728000 0.897545 0.140994 -0.417772
-0.095566 0.276845 0.733000 0.934403 0.217299 -0.282262
-0.094617 0.279867 0.741000 0.948055 0.285734 -0.139816
-0.074086 0.320280 0.848000 -0.457075 -0.877738 0.143733
0.119673 0.287421 0.761000 0.952204 -0.239046 -0.190171
-0.131749 0.280337 0.737000 -0.910803 -0.381706 -0.157283
-0.128007 0.276534 0.727000 -0.874590 -0.405322 -0.266093
-0.125012 0.274251 0.721000 -0.802122 -0.375913 -0.463993
-0.122733 0.273491 0.719000 -0.670614 -0.426213 -0.607140
-0.120296 0.272349 0.716000 -0.575556 -0.625148 -0.527186
-0.118371 0.272349 0.716000 0.036857 -0.784483 -0.619054
-0.116446 0.272349 0.716000 0.490990 -0.334518 -0.804380
-0.114681 0.272730 0.717000 0.494104 -0.212729 -0.842975
-0.112911 0.273110 0.718000 0.029031 -0.008689 -0.999541
-0.110827 0.272730 0.717000 -0.230837 -0.014026 -0.972891
-0.108899 0.272730 0.717000 0.000000 0.000000 -1.000000
-0.106972 0.272730 0.717000 0.241085 -0.016140 -0.970370
-0.105191 0.273110 0.718000 0.582647 0.050253 -0.811170
-0.103548 0.273871 0.720000 0.567985 0.021109 -0.822768
-0.101754 0.274251 0.721000 0.694508 0.064717 -0.716568
-0.100093 0.275012 0.723000 0.854208 0.054349 -0.517083
-0.098556 0.276153 0.726000 0.852987 0.166609 -0.494625
-0.097004 0.277294 0.729000 0.907476 0.142114 -0.395337
-0.095696 0.279196 0.734000 0.946173 0.195868 -0.257667
-0.095255 0.283761 0.746000 0.960413 0.261328 -0.096514
-0.078367 0.321418 0.845000 -0.764314 -0.634182 0.116781
-0.075555 0.319136 0.839000 -0.473726 -0.868987 0.142986
-0.073125 0.318375 0.837000 -0.473726 -0.868987 0.142986
0.118887 0.287565 0.756000 0.949992 -0.271461 -0.154349
-0.130497 0.279637 0.730000 -0.875001 -0.448509 -0.182244
-0.127478 0.277339 0.724000 -0.840062 -0.428480 -0.332718
-0.124839 0.275806 0.720000 -0.737671 -0.374378 -0.561856
-0.122391 0.274657 0.717000 -0.836716 -0.275652 -0.473204
-0.119960 0.273508 0.714000 -0.347353 -0.193295 -0.917596
-0.118040 0.273508 0.714000 0.031530 -0.311858 -0.949605
-0.116284 0.273891 0.715000 0.522994 -0.076027 -0.848939
-0.114681 0.274657 0.717000 0.458933 -0.283358 -0.842074
-0.112911 0.275040 0.718000 0.091233 -0.478092 -0.873559
-0.110827 0.274657 0.717000 -0.190481 -0.342225 -0.920108
-0.108899 0.274657 0.717000 0.100863 -0.164640 -0.981183
-0.106972 0.274657 0.717000 0.321467 -0.124031 -0.938763
-0.105191 0.275040 0.718000 0.583436 -0.053784 -0.810376
-0.103405 0.275423 0.719000 0.614008 -0.002072 -0.789297
-0.101613 0.275806 0.720000 0.714262 0.006773 -0.699846
-0.100093 0.276956 0.723000 0.856713 0.077830 -0.509888
-0.098556 0.278105 0.726000 0.844483 0.195199 -0.498744
-0.097004 0.279254 0.729000 0.865474 0.209274 -0.455146
-0.095957 0.281935 0.736000 0.951579 0.232165 -0.201488
-0.080638 0.323690 0.845000 -0.764314 -0.634182 0.116781
-0.133911 0.284685 0.738000 -0.905580 -0.373572 -0.200919
-0.129782 0.280056 0.726000 -0.876502 -0.361908 -0.317437
-0.127126 0.278513 0.722000 -0.788062 -0.403486 -0.464927
-0.124665 0.277356 0.719000 -0.679532 -0.215964 -0.701139
-0.122391 0.276585 0.717000 -0.663034 -0.221866 -0.714956
-0.120128 0.275813 0.715000 -0.601493 0.030642 -0.798290
-0.118206 0.275813 0.715000 -0.049818 -0.096587 -0.994077
-0.116446 0.276199 0.716000 0.548140 -0.335848 -0.765995
-0.114522 0.276199 0.716000 0.323134 -0.766628 -0.554857
-0.112597 0.276199 0.716000 0.053585 -0.744969 -0.664944
-0.110672 0.276199 0.716000 0.244217 -0.507581 -0.826269
-0.108747 0.276199 0.716000 0.245806 -0.314422 -0.916907
-0.106972 0.276585 0.717000 0.382254 -0.255203 -0.888118
-0.105191 0.276970 0.718000 0.650986 -0.033167 -0.758365
-0.103548 0.277742 0.720000 0.589318 0.275540 -0.759462
-0.101754 0.278128 0.721000 0.659562 0.329909 -0.675380
-0.100231 0.279285 0.724000 0.836061 0.218250 -0.503358
-0.098692 0.280442 0.727000 0.833180 0.241467 -0.497499
-0.097270 0.281985 0.731000 0.907262 0.227425 -0.353771
-0.096218 0.284685 0.738000 0.958522 0.226642 -0.172829
-0.071290 0.314774 0.816000 -0.340656 -0.929845 -0.139075
0.117315 0.287772 0.746000 0.946031 -0.257871 -0.196286
-0.133185 0.285116 0.734000 -0.950742 -0.109215 -0.290107
-0.129246 0.280843 0.723000 -0.835393 -0.337965 -0.433473
-0.126774 0.279677 0.720000 -0.728736 -0.394564 -0.559700
-0.124492 0.278901 0.718000 -0.473378 0.050802 -0.879393
-0.122391 0.278512 0.717000 -0.659951 -0.114422 -0.742545
-0.120128 0.277735 0.715000 -0.589344 -0.073173 -0.804562
-0.117875 0.276958 0.713000 0.007083 -0.416581 -0.909071
-0.116121 0.277347 0.714000 -0.106567 -0.306963 -0.945736
-0.114042 0.276958 0.713000 0.035284 -0.536894 -0.842912
-0.112282 0.277347 0.714000 0.460783 -0.283523 -0.841008
-0.110517 0.277735 0.715000 0.302140 -0.359696 -0.882797
-0.108747 0.278124 0.716000 0.290898 -0.161760 -0.942980
-0.106823 0.278124 0.716000 0.492886 0.003082 -0.870088
-0.105191 0.278901 0.718000 0.751240 0.134113 -0.646260
-0.103692 0.280066 0.721000 0.724380 0.193084 -0.661810
-0.101895 0.280454 0.722000 0.641071 0.382889 -0.665150
-0.100370 0.281620 0.725000 0.819874 0.184246 -0.542088
-0.098828 0.282785 0.728000 0.870505 0.219101 -0.440700
-0.097403 0.284339 0.732000 0.929722 0.204940 -0.305968
-0.096609 0.287835 0.741000 0.970578 0.212035 -0.114106
-0.078348 0.318910 0.821000 0.911700 0.393328 -0.118731
-0.073214 0.315802 0.813000 -0.324874 -0.934046 -0.148374
0.113763 0.285892 0.736000 0.879157 -0.308606 -0.363106
0.116685 0.288223 0.742000 0.894334 -0.366458 -0.256664
0.121399 0.294827 0.759000 0.960709 -0.171278 -0.218409
-0.132823 0.286306 0.732000 -0.940724 -0.117232 -0.318269
-0.129067 0.282395 0.722000 -0.888045 -0.146802 -0.435690
-0.126598 0.281222 0.719000 -0.695313 -0.258648 -0.670553
-0.124665 0.281222 0.719000 -0.275506 -0.212823 -0.937445
-0.122562 0.280831 0.718000 -0.686537 -0.121212 -0.716920
-0.120128 0.279657 0.715000 -0.526061 -0.187596 -0.829498
-0.118040 0.279266 0.714000 -0.118496 0.047303 -0.991827
-0.116121 0.279266 0.714000 0.190144 0.002422 -0.981753
-0.114202 0.279266 0.714000 0.006808 0.108772 -0.994043
-0.112282 0.279266 0.714000 0.347411 0.109877 -0.931253
-0.110517 0.279657 0.715000 0.492479 0.000068 -0.870324
-0.108747 0.280048 0.716000 0.419471 0.204188 -0.884506
-0.106972 0.280440 0.717000 0.511736 0.243361 -0.823955
-0.105337 0.281222 0.719000 0.815518 -0.015477 -0.578525
-0.103836 0.282395 0.722000 0.822545 -0.107500 -0.558448
-0.102177 0.283177 0.724000 0.847558 -0.067625 -0.526376
-0.100508 0.283960 0.726000 0.846288 0.050917 -0.530286
-0.098964 0.285133 0.729000 0.899491 0.022406 -0.436365
-0.097669 0.287089 0.734000 0.945157 0.184241 -0.269692
-0.075121 0.316815 0.810000 -0.189673 -0.979325 0.070333
-0.072673 0.315641 0.807000 0.017316 -0.997991 0.060941
-0.070853 0.317206 0.811000 0.072795 -0.983215 -0.167300
-0.068589 0.316815 0.810000 0.020168 -0.996959 -0.075274
0.113609 0.287480 0.735000 0.866757 -0.236058 -0.439327
0.116214 0.289044 0.739000 0.905081 -0.302066 -0.299305
0.120280 0.294129 0.752000 0.958057 -0.223298 -0.179624
-0.132823 0.288274 0.732000 -0.913807 0.017918 -0.405753
-0.129067 0.284336 0.722000 -0.836364 0.018698 -0.547856
-0.126246 0.282367 0.717000 -0.381016 -0.197732 -0.903177
-0.124492 0.282761 0.718000 -0.300980 -0.333229 -0.893515
-0.122050 0.281579 0.715000 -0.729791 -0.151212 -0.666738
-0.119960 0.281185 0.714000 -0.401094 -0.033319 -0.915431
-0.117875 0.280792 0.713000 -0.071443 0.102675 -0.992146
-0.116121 0.281185 0.714000 0.137360 0.171368 -0.975585
-0.114202 0.281185 0.714000 0.017297 0.222091 -0.974873
-0.112282 0.281185 0.714000 0.231794 0.113463 -0.966125
-0.110517 0.281579 0.715000 0.523263 0.155041 -0.837949
-0.108899 0.282367 0.717000 0.493828 0.003258 -0.869553
-0.106972 0.282367 0.717000 0.531720 -0.045497 -0.845697
-0.105191 0.282761 0.718000 0.681439 -0.211818 -0.700552
-0.103548 0.283548 0.720000 0.807060 -0.204645 -0.553873
-0.101895 0.284336 0.722000 0.819667 -0.350674 -0.452961
-0.100370 0.285517 0.725000 0.882677 -0.132833 -0.450818
-0.098964 0.287093 0.729000 0.923045 -0.018024 -0.384269
-0.097802 0.289456 0.735000 0.968931 0.141702 -0.202715
-0.077871 0.321355 0.816000 -0.927703 -0.259676 -0.268208
-0.072133 0.315448 0.801000 -0.207352 -0.976336 0.061426
-0.070155 0.316235 0.803000 -0.511518 -0.850604 -0.121751
-0.067742 0.315054 0.800000 -0.191397 -0.977289 0.090961
-0.065509 0.314660 0.799000 -0.250340 -0.962563 0.103937
0.110722 0.287093 0.729000 0.624772 0.080102 -0.776687
0.113145 0.288274 0.732000 0.865267 -0.168761 -0.472051
0.115899 0.290243 0.737000 0.901836 -0.219855 -0.371963
0.119480 0.294181 0.747000 0.965691 -0.117088 -0.231799
-0.129425 0.287070 0.724000 -0.847912 0.283717 -0.447828
-0.126422 0.284691 0.718000 -0.658233 0.004526 -0.752800
-0.124492 0.284691 0.718000 -0.422810 -0.028283 -0.905777
-0.122220 0.283898 0.716000 -0.629754 -0.057523 -0.774662
-0.120128 0.283501 0.715000 -0.438494 -0.006393 -0.898711
-0.118040 0.283105 0.714000 -0.014380 0.102712 -0.994607
-0.116284 0.283501 0.715000 0.033741 -0.310073 -0.950114
-0.114362 0.283501 0.715000 0.203670 -0.269544 -0.941204
-0.112440 0.283501 0.715000 0.280987 -0.048860 -0.958467
-0.110517 0.283501 0.715000 0.534282 -0.045481 -0.844082
-0.108747 0.283898 0.716000 0.412874 -0.116261 -0.903337
-0.106972 0.284294 0.717000 0.322146 -0.118542 -0.939239
-0.105191 0.284691 0.718000 0.640258 -0.344392 -0.686633
-0.103548 0.285484 0.720000 0.796388 -0.283530 -0.534207
-0.101895 0.286277 0.722000 0.865497 -0.227349 -0.446349
-0.100370 0.287466 0.725000 0.912865 -0.150413 -0.379543
-0.098828 0.288656 0.728000 0.951143 -0.037784 -0.306431
-0.097935 0.291828 0.736000 0.983689 0.110137 -0.142215
-0.074194 0.317204 0.800000 -0.886136 -0.417049 -0.202071
0.108613 0.288656 0.728000 0.428891 0.000059 -0.903356
0.110722 0.289052 0.729000 0.674972 0.068460 -0.734661
0.113145 0.290242 0.732000 0.855616 0.012840 -0.517452
0.115742 0.291828 0.736000 0.835457 -0.160796 -0.525505
0.119160 0.295397 0.745000 0.956187 -0.090908 -0.278285
0.124415 0.303327 0.765000 0.956052 -0.180700 -0.230895
-0.130497 0.291411 0.730000 -0.812276 0.455221 -0.364667
-0.126774 0.287419 0.720000 -0.732332 0.338416 -0.590902
-0.124319 0.286222 0.717000 -0.601659 0.014288 -0.798625
-0.122050 0.285423 0.715000 -0.546113 0.023190 -0.837390
-0.119960 0.285024 0.714000 -0.448965 -0.247964 -0.858455
-0.117875 0.284625 0.713000 -0.116108 -0.459072 -0.880779
-0.115958 0.284625 0.713000 0.004148 -0.392376 -0.919796
-0.114042 0.284625 0.713000 0.071587 -0.582985 -0.809323
-0.112282 0.285024 0.714000 0.374154 -0.172040 -0.911269
-0.110517 0.285423 0.715000 0.467762 0.177266 -0.865896
-0.108899 0.286222 0.717000 0.387722 0.364024 -0.846852
-0.106823 0.285823 0.716000 0.264376 0.141329 -0.954008
-0.105044 0.286222 0.717000 0.558956 0.245361 -0.792064
-0.103261 0.286621 0.718000 0.749133 0.046613 -0.660777
-0.101754 0.287819 0.721000 0.857767 -0.071977 -0.508975
-0.100231 0.289016 0.724000 0.912012 -0.096344 -0.398688
-0.098828 0.290613 0.728000 0.955752 -0.025458 -0.293070
-0.097935 0.293806 0.736000 0.985444 0.108630 -0.130767
-0.074657 0.321351 0.805000 -0.904919 -0.293754 -0.307946
0.104699 0.290613 0.728000 -0.054708 0.027221 -0.998131
0.106509 0.290214 0.727000 0.239460 -0.052636 -0.969478
0.108613 0.290613 0.728000 0.259448 -0.085085 -0.962002
0.110722 0.291012 0.729000 0.661859 0.148716 -0.734728
0.113145 0.292210 0.732000 0.759918 0.113956 -0.639952
0.115585 0.293407 0.735000 0.771015 0.256603 -0.582830
0.118680 0.296202 0.742000 0.884430 0.231355 -0.405287
0.123602 0.303387 0.760000 0.914398 0.005198 -0.404784
-0.127655 0.291364 0.725000 -0.737070 0.472036 -0.483642
-0.124492 0.288551 0.718000 -0.619701 0.298534 -0.725843
-0.122220 0.287747 0.716000 -0.607421 0.231199 -0.759991
-0.119960 0.286944 0.714000 -0.406851 0.291731 -0.865659
-0.117875 0.286542 0.713000 -0.221018 0.299489 -0.928148
-0.115958 0.286542 0.713000 0.017193 0.222131 -0.974865
-0.114042 0.286542 0.713000 0.310922 0.258170 -0.914700
-0.112440 0.287345 0.715000 0.522362 0.247693 -0.815957
-0.110672 0.287747 0.716000 0.602191 0.292760 -0.742736
-0.109051 0.288551 0.718000 0.363763 0.362000 -0.858273
-0.107121 0.288551 0.718000 -0.007239 0.367958 -0.929814
-0.105337 0.288953 0.719000 0.127871 0.323764 -0.937457
-0.103548 0.289355 0.720000 0.678173 0.115095 -0.725833
-0.101754 0.289757 0.721000 0.858153 -0.099390 -0.503681
-0.100231 0.290962 0.724000 0.915322 -0.110132 -0.387372
-0.098964 0.292972 0.729000 0.973630 -0.004004 -0.228099
-0.098202 0.296589 0.738000 0.985121 0.127572 -0.115156
0.101062 0.293374 0.730000 -0.290594 0.587155 -0.755516
0.102883 0.292972 0.729000 -0.264452 0.552403 -0.790517
0.104555 0.292168 0.727000 -0.042298 0.334560 -0.941425
0.106509 0.292168 0.727000 0.139406 0.213350 -0.966979
0.108613 0.292570 0.728000 0.450343 0.370789 -0.812223
0.111026 0.293776 0.731000 0.553244 0.471829 -0.686512
0.113300 0.294579 0.733000 0.531299 0.434878 -0.727050
0.115742 0.295785 0.736000 0.804376 0.348527 -0.481153
0.119000 0.299000 0.744000 -0.721709 -0.601250 0.342979
0.123927 0.306234 0.762000 0.914398 0.005198 -0.404784
-0.129944 0.298573 0.738000 -0.578308 0.642198 -0.503132
-0.125185 0.292099 0.722000 -0.653240 0.549604 -0.520781
-0.122562 0.290481 0.718000 -0.480826 0.597265 -0.641935
-0.120128 0.289267 0.715000 -0.401954 0.460880 -0.791216
-0.118206 0.289267 0.715000 -0.244545 0.493661 -0.834563
-0.116121 0.288863 0.714000 0.100421 0.523094 -0.846338
-0.114202 0.288863 0.714000 0.228501 0.585808 -0.777571
-0.112440 0.289267 0.715000 0.428378 0.436665 -0.791085
-0.110827 0.290077 0.717000 0.586196 0.356363 -0.727585
-0.109203 0.290886 0.719000 0.224145 0.196161 -0.954610
-0.107270 0.290886 0.719000 -0.198163 -0.074109 -0.977364
-0.105191 0.290481 0.718000 -0.073070 -0.098988 -0.992402
-0.103261 0.290481 0.718000 0.450330 -0.449344 -0.771552
-0.101754 0.291695 0.721000 0.855654 -0.325417 -0.402444
-0.100231 0.292909 0.724000 0.908683 -0.211767 -0.359792
-0.099099 0.295336 0.730000 0.987796 0.003511 -0.155715
-0.071863 0.322847 0.798000 -0.943552 -0.124890 -0.306776
0.098069 0.298168 0.737000 -0.242951 0.809106 -0.535090
0.099778 0.297359 0.735000 -0.263947 0.783761 -0.562184
0.101477 0.296550 0.733000 -0.310854 0.730050 -0.608603
0.103165 0.295741 0.731000 -0.296588 0.700800 -0.648780
0.104843 0.294931 0.729000 -0.264452 0.552403 -0.790517
0.106949 0.295336 0.730000 0.115436 0.728682 -0.675054
0.109210 0.296145 0.732000 0.335077 0.708010 -0.621648
0.111633 0.297359 0.735000 0.432327 0.676184 -0.596547
0.114227 0.298977 0.739000 0.511229 0.669229 -0.539237
0.117000 0.301000 0.744000 0.716331 0.597458 -0.360436
0.120919 0.305855 0.756000 0.746564 0.452250 -0.487968
-0.128306 0.301371 0.740000 -0.503033 0.749804 -0.429828
-0.123586 0.294855 0.724000 -0.425527 0.764121 -0.484815
-0.120968 0.293226 0.720000 -0.339877 0.719121 -0.606093
-0.118867 0.292819 0.719000 -0.197215 0.741301 -0.641545
-0.116934 0.292819 0.719000 -0.157199 0.750915 -0.641417
-0.114681 0.292004 0.717000 -0.044148 0.645442 -0.762532
-0.112754 0.292004 0.717000 0.400010 0.395746 -0.826666
-0.110981 0.292411 0.718000 0.326105 0.049321 -0.944046
-0.109203 0.292819 0.719000 -0.137978 -0.395491 -0.908047
-0.107121 0.292411 0.718000 -0.282836 -0.355106 -0.891013
-0.105191 0.292411 0.718000 -0.171679 -0.517326 -0.838392
-0.103261 0.292411 0.718000 0.336004 -0.608855 -0.718608
-0.101472 0.292819 0.719000 0.776327 -0.451487 -0.439858
-0.100093 0.294448 0.723000 0.924040 -0.255549 -0.284334
-0.098964 0.296891 0.729000 0.979442 0.022981 -0.200412
0.097261 0.303815 0.746000 -0.183181 0.864954 -0.467225
0.098867 0.302593 0.743000 -0.208849 0.844691 -0.492828
0.100728 0.302185 0.742000 -0.183233 0.834133 -0.520238
0.102446 0.301371 0.740000 -0.206845 0.815310 -0.540819
0.104153 0.300556 0.738000 -0.210894 0.820383 -0.531503
0.105706 0.299335 0.735000 -0.011955 0.789840 -0.613197
0.107828 0.299742 0.736000 0.155968 0.862696 -0.481072
0.110552 0.301778 0.741000 0.246927 0.825491 -0.507535
0.117164 0.308702 0.758000 0.550103 0.736902 -0.392891
-0.122984 0.300081 0.732000 -0.358253 0.825024 -0.437025
-0.120190 0.298031 0.727000 -0.256629 0.817704 -0.515268
-0.118235 0.298031 0.727000 -0.256629 0.817704 -0.515268
-0.115641 0.296391 0.723000 -0.277812 0.780278 -0.560345
-0.113226 0.295161 0.720000 -0.214084 0.724312 -0.655393
-0.110981 0.294341 0.718000 -0.170123 0.150036 -0.973934
-0.109051 0.294341 0.718000 -0.064334 -0.008108 -0.997895
-0.106972 0.293931 0.717000 -0.440675 0.077172 -0.894344
-0.104898 0.293522 0.716000 -0.244531 -0.516195 -0.820821
-0.102973 0.293522 0.716000 0.064488 -0.482417 -0.873564
-0.101190 0.293931 0.717000 0.558595 -0.509690 -0.654360
-0.099816 0.295571 0.721000 0.941698 -0.181713 -0.283169
-0.098692 0.298031 0.727000 0.991025 0.022590 -0.131754
-0.117560 0.303286 0.735000 -0.268334 0.822778 -0.501032
-0.114641 0.300810 0.729000 -0.300801 0.812292 -0.499700
-0.111909 0.298747 0.724000 -0.327897 0.773791 -0.541970
-0.109659 0.297922 0.722000 -0.296089 0.739142 -0.604979
-0.107270 0.296684 0.719000 -0.508355 0.429449 -0.746424
-0.105044 0.295859 0.717000 -0.490622 0.287946 -0.822421
-0.102829 0.295034 0.715000 0.100995 0.178371 -0.978766
-0.101190 0.295859 0.717000 0.653991 0.272618 -0.705674
-0.099816 0.297509 0.721000 0.916580 0.132839 -0.377141
-0.099099 0.301223 0.730000 -0.905326 -0.354709 -0.233593
0.079637 0.309476 0.750000 0.314596 0.805549 -0.502115
-0.111329 0.304431 0.733000 -0.273476 0.833018 -0.480928
-0.108315 0.301524 0.726000 -0.204925 0.825189 -0.526373
-0.105777 0.299863 0.722000 -0.177836 0.840040 -0.512549
-0.103261 0.298202 0.718000 0.081078 0.756959 -0.648413
-0.101472 0.298617 0.719000 0.379505 0.739385 -0.556135
-0.100231 0.300694 0.724000 0.674630 0.609175 -0.416870
-0.100050 0.306093 0.737000 0.740441 0.600193 -0.302517
0.075202 0.309831 0.746000 0.312717 0.800891 -0.510668
0.077621 0.311492 0.750000 0.342892 0.788376 -0.510773
-0.108121 0.308492 0.738000 -0.068863 -0.982065 0.175517
-0.105274 0.305984 0.732000 0.119600 0.838395 -0.531780
-0.103448 0.306402 0.733000 0.119600 0.838395 -0.531780
-0.102446 0.309328 0.740000 0.629669 0.720951 -0.289391
0.085052 0.336980 0.801000 -0.058614 0.815703 -0.575494
0.089359 0.336980 0.801000 -0.257505 0.780905 -0.569104
0.091055 0.335297 0.797000 -0.356554 0.770050 -0.529049
0.103780 0.334876 0.796000 0.648056 0.579925 -0.493670
0.095579 0.338286 0.799000 -0.212416 0.838588 -0.501646
0.097483 0.337440 0.797000 -0.047168 0.796229 -0.603153
0.099375 0.336593 0.795000 0.051963 0.800376 -0.597242
0.101767 0.337440 0.797000 0.173632 0.773383 -0.609697
0.092532 0.042461 0.810045 -0.147595 -0.988647 -0.035916
0.094709 0.042461 0.810045 0.077079 -0.994307 -0.076697
0.097126 0.042566 0.812045 0.077079 -0.994307 -0.076697
0.099064 0.042460 0.810045 0.077079 -0.994307 -0.076697
0.101366 0.042513 0.811045 0.077079 -0.994307 -0.076697
0.081233 0.043254 0.785046 -0.205291 -0.950328 -0.234927
0.082919 0.043032 0.781046 -0.112671 -0.861147 -0.496088
0.085018 0.043032 0.781046 -0.075449 -0.890849 -0.448423
0.086894 0.042921 0.779046 0.086013 -0.927389 -0.364624
0.089217 0.043031 0.781045 0.241303 -0.899197 -0.365493
0.091433 0.043087 0.782045 0.490674 -0.738191 -0.463209
0.093655 0.043142 0.783045 0.397919 -0.607489 -0.687594
0.096127 0.043308 0.786045 0.516100 -0.532759 -0.670767
0.098240 0.043308 0.786045 0.467407 -0.704396 -0.534400
0.100481 0.043363 0.787045 0.246381 -0.782142 -0.572568
0.103249 0.043640 0.792045 0.769844 -0.248164 -0.587978
0.076620 0.045132 0.781045 0.627919 0.757351 -0.177974
0.077711 0.044551 0.771046 -0.454466 -0.879992 -0.139778
0.079577 0.044434 0.769046 -0.072372 -0.970631 -0.230420
0.081538 0.044376 0.768045 0.127119 -0.871191 -0.474573
0.083602 0.044376 0.768045 0.570883 -0.237267 -0.785972
0.086002 0.044550 0.771045 0.718884 0.254295 -0.646726
0.088417 0.044724 0.774045 0.680189 0.517902 -0.518389
0.090849 0.044898 0.777045 0.574911 -0.801575 -0.165121
0.093057 0.044956 0.778045 0.397072 -0.721888 -0.566966
0.095516 0.045130 0.781044 0.276434 0.652954 -0.704837
0.097740 0.045188 0.782044 0.153291 0.962327 -0.223409
0.099842 0.045188 0.782044 0.116316 0.756959 -0.642665
0.101944 0.045188 0.782044 0.046968 0.730096 -0.681398
0.104180 0.045246 0.783044 0.138063 0.919939 -0.366248
0.106964 0.045536 0.788044 0.410273 0.725467 -0.552180
0.113883 0.046640 0.807043 -0.099314 -0.093339 -0.990634
0.074426 0.047171 0.780045 -0.719196 -0.689933 0.084720
0.075442 0.046502 0.769045 -0.718386 -0.679734 -0.149249
0.077106 0.046258 0.765045 -0.324458 -0.844507 -0.426533
0.079163 0.046258 0.765045 0.374480 -0.632504 -0.678150
0.081432 0.046380 0.767045 0.489748 -0.533763 -0.689467
0.083820 0.046562 0.770045 0.768681 0.107967 -0.630283
0.086337 0.046805 0.774044 0.761157 0.408012 -0.503804
0.088760 0.046987 0.777044 0.715576 0.507183 -0.479927
0.091317 0.047230 0.781044 -0.019551 0.180489 -0.983275
0.093416 0.047230 0.781044 0.287097 0.017166 -0.957663
0.095760 0.047351 0.783044 0.013830 0.593251 -0.804653
0.097990 0.047412 0.784044 0.556062 -0.336923 -0.759794
0.100226 0.047473 0.785044 0.339421 -0.908994 -0.242695
0.102336 0.047472 0.785043 0.001448 0.717780 -0.695952
0.104313 0.047411 0.784043 0.029850 0.733916 -0.678253
0.106420 0.047411 0.784043 0.476445 0.311233 -0.822086
0.108805 0.047533 0.786043 0.641106 -0.332694 -0.691595
0.111483 0.047776 0.790043 0.744691 -0.550188 -0.377981
0.115189 0.048444 0.801042 -0.001516 -0.703777 -0.710598
0.075148 0.048378 0.766044 -0.673780 -0.512929 -0.532147
0.076905 0.048188 0.763044 -0.339202 -0.573215 -0.746049
0.079059 0.048251 0.764044 0.494656 -0.430390 -0.755077
0.081326 0.048378 0.766044 0.753551 -0.237576 -0.612923
0.083820 0.048632 0.770044 0.786830 -0.015931 -0.616837
0.086560 0.049012 0.776044 0.803465 0.381719 -0.456511
0.089218 0.049330 0.781044 0.663430 0.539066 -0.518524
0.091902 0.049647 0.786043 0.569862 0.680138 -0.460670
0.094015 0.049647 0.786043 0.241460 0.856022 -0.456530
0.096372 0.049774 0.788043 0.216510 0.852005 -0.476139
0.098616 0.049837 0.789043 0.205174 0.874726 -0.438464
0.100992 0.049964 0.791043 0.073958 0.899714 -0.429583
0.102988 0.049900 0.790043 -0.114323 0.900996 -0.417915
0.104979 0.049836 0.789042 -0.047489 0.810745 -0.583070
0.106828 0.049709 0.787042 0.010774 0.816648 -0.576624
0.109082 0.049773 0.788042 0.155014 0.732967 -0.662019
0.111200 0.049772 0.788042 0.601442 0.059457 -0.796578
0.113894 0.050026 0.792042 0.080413 0.312821 -0.946253
0.117196 0.050534 0.800042 0.100984 -0.614206 -0.782780
0.073567 0.050769 0.771044 -0.974986 -0.078793 -0.208113
0.074952 0.050305 0.764044 -0.572907 -0.416821 -0.705843
0.076804 0.050173 0.762044 -0.443388 -0.261106 -0.857495
0.078956 0.050239 0.763044 0.429016 -0.356048 -0.830179
0.081219 0.050371 0.765044 0.697415 -0.304337 -0.648832
0.083821 0.050702 0.770043 0.834829 -0.235067 -0.497761
0.086672 0.051165 0.777043 0.905032 0.083904 -0.416756
0.089446 0.051561 0.783043 0.695400 0.483838 -0.530979
0.092253 0.051958 0.789042 0.470013 0.638631 -0.608931
0.094613 0.052090 0.791042 0.536544 0.553575 -0.636604
0.096984 0.052223 0.793042 0.584865 0.324462 -0.743196
0.099366 0.052355 0.795042 0.521870 0.591141 -0.614638
0.101759 0.052487 0.797042 0.389752 0.642765 -0.659170
0.104032 0.052553 0.798042 0.043545 0.680164 -0.731471
0.105911 0.052420 0.796042 -0.137923 0.880911 -0.452215
0.107643 0.052222 0.793042 -0.226867 0.900089 -0.371357
0.109636 0.052155 0.792042 -0.076161 0.826519 -0.557313
0.111483 0.052023 0.790042 0.405414 0.427528 -0.807777
0.113607 0.052023 0.790041 0.028318 0.681716 -0.730774
0.116023 0.052155 0.792041 0.358284 0.317091 -0.877941
0.119794 0.052883 0.803041 -0.014076 0.095546 -0.995239
0.073567 0.052841 0.771043 -0.974998 0.095148 -0.200894
0.075050 0.052428 0.765043 -0.887556 0.130229 -0.441884
0.076804 0.052221 0.762043 -0.577038 -0.066786 -0.813977
0.078852 0.052221 0.762043 0.089060 -0.157499 -0.983466
0.081007 0.052290 0.763043 0.489696 -0.316873 -0.812274
0.083494 0.052565 0.767043 0.871851 -0.205762 -0.444396
0.086560 0.053185 0.776042 0.913156 0.043044 -0.405118
0.089561 0.053735 0.784042 0.818894 0.262958 -0.509886
0.092487 0.054217 0.791042 0.723369 0.088729 -0.684584
0.094853 0.054354 0.793042 0.605710 0.291119 -0.740313
0.097229 0.054492 0.795041 0.565562 0.293220 -0.770622
0.099492 0.054561 0.796041 0.614394 0.222721 -0.756732
0.102015 0.054767 0.799041 0.485607 0.443054 -0.753341
0.104293 0.054836 0.800041 0.091244 0.638067 -0.764281
0.106443 0.054836 0.800041 -0.106768 0.756342 -0.645062
0.108458 0.054767 0.799041 -0.230233 0.866862 -0.441687
0.110467 0.054698 0.798041 -0.324281 0.872481 -0.364938
0.112330 0.054560 0.796041 -0.377669 0.834686 -0.400307
0.114038 0.054353 0.793041 -0.271908 0.741069 -0.613572
0.116024 0.054284 0.792041 -0.442074 0.646163 -0.621848
0.073758 0.055057 0.773042 -0.965997 0.236704 -0.103906
0.075149 0.054556 0.766043 -0.858787 0.388319 -0.333995
0.076905 0.054341 0.763043 -0.736963 0.195381 -0.647003
0.078749 0.054198 0.761042 0.103564 0.013805 -0.994454
0.080901 0.054269 0.762042 0.103564 0.013805 -0.994454
0.083385 0.054555 0.766042 0.878099 -0.053802 -0.475309
0.086449 0.055199 0.775042 0.926210 -0.171373 -0.335719
0.089675 0.055914 0.785041 0.923687 -0.088228 -0.372712
0.092487 0.056343 0.791041 0.669716 -0.107970 -0.734650
0.094853 0.056486 0.793041 0.663793 -0.081269 -0.743402
0.097230 0.056629 0.795041 0.600253 0.077442 -0.795924
0.099617 0.056772 0.797041 0.687549 0.086771 -0.720790
0.102142 0.056986 0.800040 0.597465 0.449907 -0.663513
0.104554 0.057129 0.802040 0.515564 0.557160 -0.650657
0.107109 0.057344 0.805040 0.287592 0.682693 -0.671394
0.109137 0.057272 0.804040 0.051161 0.891530 -0.449506
0.111160 0.057200 0.803040 -0.269914 0.849080 -0.453613
0.113036 0.057057 0.801040 -0.390731 0.849507 -0.353904
0.114614 0.056771 0.797040 -0.232269 0.869467 -0.435456
0.116463 0.056628 0.795040 -0.274257 0.854997 -0.439678
0.118451 0.056556 0.794040 -0.194185 0.823162 -0.533147
0.121801 0.057128 0.802039 0.748550 -0.345181 -0.566163
0.074235 0.057506 0.778042 -0.872204 0.480498 -0.090713
0.075541 0.056912 0.770042 -0.810425 0.548703 -0.204765
0.077006 0.056466 0.764042 -0.550148 0.600650 -0.579868
0.078853 0.056318 0.762042 -0.201696 0.507493 -0.837518
0.081007 0.056392 0.763042 0.106190 0.358025 -0.927489
0.083494 0.056689 0.767041 0.834314 0.164796 -0.525856
0.086561 0.057357 0.776041 0.876364 -0.292694 -0.382512
0.089675 0.058024 0.785041 0.907408 -0.300381 -0.293927
0.092371 0.058395 0.790041 0.798245 -0.316287 -0.512612
0.094734 0.058544 0.792040 0.687487 -0.271554 -0.673493
0.097230 0.058766 0.795040 0.687663 -0.025348 -0.725481
0.099617 0.058915 0.797040 0.711938 0.004124 -0.702110
0.102270 0.059211 0.801040 0.762184 0.221459 -0.608082
0.104815 0.059434 0.804040 0.578731 0.477128 -0.661089
0.107242 0.059582 0.806039 0.521582 0.472835 -0.709930
0.109545 0.059656 0.807039 0.043993 0.731142 -0.680474
0.111853 0.059730 0.808039 -0.025074 0.903000 -0.428332
0.113742 0.059582 0.806039 -0.379977 0.822829 -0.422083
0.115477 0.059359 0.803039 -0.554805 0.755047 -0.348912
0.117196 0.059136 0.800039 -0.481685 0.793318 -0.371810
0.118899 0.058913 0.797039 -0.733984 0.498147 -0.461403
0.121042 0.058913 0.797039 -0.791088 0.366649 -0.489481
0.075000 0.060213 0.786041 -0.853354 0.505966 -0.124955
0.076032 0.059366 0.775041 -0.733115 0.662039 -0.154859
0.077410 0.058828 0.768041 -0.631886 0.696752 -0.339028
0.079060 0.058520 0.764041 -0.437391 0.710807 -0.550519
0.081114 0.058520 0.764041 0.394761 0.551525 -0.734559
0.083603 0.058827 0.768041 0.461600 0.466546 -0.754245
0.086338 0.059289 0.774041 0.642428 -0.461567 -0.611818
0.089104 0.059750 0.780040 0.721985 -0.642495 -0.257181
0.091786 0.060134 0.785040 0.686868 -0.669845 -0.282379
0.094494 0.060519 0.790040 0.771449 -0.454111 -0.445795
0.097230 0.060903 0.795039 0.816646 -0.217880 -0.534386
0.099742 0.061134 0.798039 0.796174 0.040958 -0.603528
0.102398 0.061441 0.802039 0.755001 0.023964 -0.655150
0.104946 0.061672 0.805039 0.726683 0.217279 -0.651501
0.107509 0.061903 0.808039 0.619124 0.392761 -0.679763
0.109953 0.062056 0.810038 0.598790 0.400566 -0.693288
0.112407 0.062210 0.812038 0.360974 0.553922 -0.749974
0.114449 0.062133 0.811038 -0.198631 0.848206 -0.490546
0.116053 0.061825 0.807038 -0.566215 0.765086 -0.306090
0.117783 0.061594 0.804038 -0.641299 0.694451 -0.325823
0.120890 0.060978 0.796038 -0.586733 0.643950 -0.490671
0.123803 0.061363 0.801038 -0.981806 0.132778 -0.135833
0.076916 0.062166 0.784040 -0.723280 0.683485 -0.097185
0.078116 0.061450 0.775040 -0.625441 0.751081 -0.210649
0.079578 0.060972 0.769040 -0.100638 0.826863 -0.552905
0.081433 0.060812 0.767040 0.146537 0.832858 -0.533274
0.083603 0.060892 0.768040 0.133188 0.459998 -0.877673
0.085891 0.061051 0.770040 0.725230 -0.444739 -0.525663
0.088304 0.061290 0.773040 0.693116 -0.423251 -0.583530
0.090850 0.061608 0.777040 0.639093 -0.722041 -0.265457
0.093776 0.062165 0.784039 0.598454 -0.758741 -0.257760
0.096741 0.062722 0.791039 0.721135 -0.596780 -0.352119
0.099617 0.063199 0.797039 0.822476 -0.360072 -0.440356
0.102398 0.063597 0.802038 0.810889 -0.077823 -0.579895
0.105076 0.063916 0.806038 0.777461 -0.076990 -0.624101
0.107509 0.064075 0.808038 0.733334 -0.118145 -0.669445
0.110089 0.064313 0.811038 0.679588 0.061365 -0.730888
0.112546 0.064472 0.813038 0.430643 0.319781 -0.843787
0.114872 0.064552 0.814037 0.196909 0.598501 -0.776280
0.116917 0.064472 0.813037 -0.353092 0.790419 -0.500150
0.118516 0.064153 0.809037 -0.665932 0.690039 -0.282981
0.119795 0.063676 0.803037 -0.638063 0.602925 -0.478613
0.121194 0.063277 0.798037 0.526171 0.393203 -0.753784
0.123494 0.063357 0.799037 0.526171 0.393203 -0.753784
0.128159 0.064630 0.815037 0.893580 -0.041368 -0.446845
0.079226 0.064438 0.786039 -0.688842 0.720252 -0.080280
0.080510 0.063780 0.778039 -0.546214 0.810913 -0.209059
0.081964 0.063286 0.772040 -0.381733 0.797403 -0.466924
0.083930 0.063203 0.771039 -0.245535 0.657131 -0.712394
0.085780 0.063039 0.769039 -0.150184 0.571501 -0.806514
0.087961 0.063121 0.770039 0.472741 -0.271839 -0.838209
0.090265 0.063285 0.772039 0.138737 -0.023399 -0.989987
0.092939 0.063696 0.777039 0.716624 -0.593907 -0.365912
0.095639 0.064108 0.782039 0.592749 -0.769063 -0.239737
0.098617 0.064684 0.789038 0.584488 -0.777814 -0.231663
0.101632 0.065259 0.796038 0.660307 -0.715268 -0.229427
0.104555 0.065753 0.802038 0.716085 -0.622606 -0.315866
0.107243 0.066082 0.806037 0.742851 -0.443891 -0.501205
0.109953 0.066411 0.810037 0.740930 -0.259479 -0.619405
0.112546 0.066658 0.813037 0.733906 -0.117552 -0.668922
0.115155 0.066904 0.816037 0.331155 0.597270 -0.730194
0.117348 0.066904 0.816037 -0.153193 0.761598 -0.629336
0.119102 0.066657 0.813037 -0.618011 0.613881 -0.490832
0.120392 0.066163 0.807037 -0.777498 0.570540 -0.264103
0.121802 0.065752 0.802037 -0.536066 0.580339 -0.612809
0.123803 0.065669 0.801037 -0.536066 0.580339 -0.612809
0.128001 0.066739 0.814036 0.247924 -0.108741 -0.962608
0.081856 0.066976 0.791038 -0.601441 0.790170 -0.116462
0.083027 0.066211 0.782039 -0.542546 0.822239 -0.170882
0.084584 0.065786 0.777039 -0.478304 0.843832 -0.242445
0.086115 0.065361 0.772039 -0.165411 0.797012 -0.580486
0.088076 0.065276 0.771039 0.113473 0.569776 -0.813685
0.090031 0.065190 0.770038 0.056703 0.499368 -0.864324
0.092341 0.065360 0.772038 0.499798 0.128343 -0.856448
0.094783 0.065615 0.775038 0.813438 -0.169838 -0.556236
0.097492 0.066040 0.780038 0.609082 -0.686319 -0.397750
0.100355 0.066549 0.786038 0.529984 -0.820015 -0.216816
0.103381 0.067144 0.793037 0.539721 -0.824045 -0.173135
0.106178 0.067569 0.798037 0.561117 -0.801213 -0.208591
0.109274 0.068164 0.805037 0.611570 -0.724894 -0.317427
0.112130 0.068588 0.810036 0.694193 -0.435341 -0.573271
0.115155 0.069098 0.816036 0.479666 0.337247 -0.809854
0.117780 0.069353 0.819036 0.526886 0.066611 -0.847205
0.119835 0.069268 0.818036 -0.629423 0.687561 -0.361623
0.121139 0.068758 0.812036 -0.848173 0.449508 -0.279964
0.122258 0.068163 0.805036 -0.787313 0.449161 -0.422141
0.124113 0.067992 0.803036 -0.787313 0.449161 -0.422141
0.128316 0.069097 0.816035 -0.034075 -0.128497 -0.991094
0.084620 0.069628 0.797037 -0.590298 0.802236 -0.087314
0.085674 0.068751 0.787038 -0.543069 0.822095 -0.169909
0.087008 0.068137 0.780038 -0.483282 0.845037 -0.227948
0.088647 0.067786 0.776038 -0.404164 0.856776 -0.319640
0.090382 0.067523 0.773038 -0.108642 0.774990 -0.622206
0.092460 0.067523 0.773038 0.473533 0.491375 -0.730706
0.094661 0.067611 0.774037 0.286144 0.487267 -0.824814
0.096866 0.067698 0.775037 0.379821 0.290780 -0.878002
0.099461 0.068049 0.779037 0.324857 -0.749227 -0.577396
0.101946 0.068312 0.782037 0.514113 -0.825781 -0.232579
0.104714 0.068750 0.787037 0.539186 -0.825566 -0.167464
0.107916 0.069451 0.795036 0.544714 -0.816723 -0.191224
0.111023 0.070064 0.802036 0.613299 -0.765431 -0.195613
0.114449 0.070853 0.811035 0.686209 -0.622110 -0.377199
0.120129 0.071642 0.820035 -0.819772 0.450702 -0.353077
0.122714 0.070590 0.808035 -0.909820 0.271543 -0.313716
0.124267 0.070239 0.804035 -0.790342 0.430727 -0.435491
0.128159 0.071203 0.815035 0.064888 -0.164086 -0.984283
0.088013 0.071047 0.789037 -0.550806 0.822861 -0.138387
0.089448 0.070505 0.783037 -0.484049 0.844240 -0.229269
0.091085 0.070143 0.779037 -0.399884 0.850865 -0.340154
0.092820 0.069872 0.776037 -0.180645 0.867271 -0.463403
0.094906 0.069872 0.776037 0.020358 0.374877 -0.926687
0.096992 0.069872 0.776037 0.012430 0.498539 -0.866573
0.099078 0.069872 0.776037 0.227836 -0.110355 -0.967377
0.101164 0.069872 0.776036 0.244260 -0.555871 -0.794664
0.103516 0.070052 0.778036 0.607802 -0.644202 -0.464511
0.106286 0.070504 0.783036 0.687711 -0.662144 -0.298046
0.109499 0.071226 0.791036 0.684555 -0.693967 -0.223678
0.113179 0.072220 0.802035 0.664839 -0.716615 -0.211436
0.116917 0.073214 0.813035 0.416446 -0.813893 -0.405529
0.119836 0.073665 0.818034 0.209863 -0.901511 -0.378955
0.121587 0.073394 0.815034 0.102603 -0.900012 -0.424060
0.122866 0.072852 0.809034 -0.817619 0.209959 -0.536034
0.124422 0.072490 0.805034 -0.826503 0.335451 -0.451921
0.128002 0.073303 0.814034 -0.129390 -0.134715 -0.982377
0.090934 0.073819 0.796036 -0.558700 0.822664 -0.103545
0.092021 0.072982 0.787036 -0.523712 0.825989 -0.207589
0.093538 0.072516 0.782036 -0.444240 0.845596 -0.295320
0.095395 0.072330 0.780036 -0.390382 0.787163 -0.477044
0.097117 0.072051 0.777036 -0.294209 0.687271 -0.663859
0.099206 0.072051 0.777036 -0.176238 0.473186 -0.862967
0.101164 0.071958 0.776036 0.290331 0.118970 -0.949391
0.103383 0.072050 0.777036 0.502581 0.081586 -0.860554
0.105743 0.072236 0.779035 0.698163 -0.200209 -0.687328
0.108530 0.072701 0.784035 0.744790 0.066353 -0.663843
0.111626 0.073353 0.791035 0.780339 -0.576722 -0.242137
0.115191 0.074283 0.801034 0.693135 -0.671179 -0.263255
0.118517 0.075027 0.809034 -0.273295 -0.508009 -0.816953
0.121139 0.075306 0.812034 -0.068647 -0.845479 -0.529914
0.122866 0.075027 0.809034 -0.216314 -0.662379 -0.717440
0.124732 0.074840 0.807034 -0.570726 0.070664 -0.818047
0.127845 0.075398 0.813033 0.778239 -0.101964 -0.619544
0.133550 0.077445 0.835032 0.884489 -0.404005 -0.233519
0.094363 0.078831 0.826034 0.054540 0.646104 -0.761023
0.093893 0.076629 0.803035 -0.600747 0.791553 -0.110491
0.094615 0.075480 0.791035 -0.537028 0.826876 -0.165859
0.096130 0.075001 0.786035 -0.517886 0.813930 -0.262555
0.097617 0.074523 0.781035 -0.434266 0.811352 -0.390795
0.099461 0.074331 0.779035 -0.321954 0.768313 -0.552837
0.101295 0.074139 0.777035 -0.070766 0.503161 -0.861088
0.103516 0.074235 0.778035 0.266526 0.365146 -0.891802
0.105744 0.074330 0.779035 0.698163 -0.200209 -0.687328
0.108253 0.074617 0.782035 0.837751 0.024899 -0.545327
0.110920 0.075000 0.786034 0.668472 0.216901 -0.711217
0.113752 0.075479 0.791034 0.776273 -0.478262 -0.410809
0.117051 0.076244 0.799034 0.758123 -0.580058 -0.298239
0.120393 0.077010 0.807033 -0.087175 -0.305453 -0.948229
0.122866 0.077201 0.809033 -0.704814 0.440233 -0.556077
0.124886 0.077105 0.808033 0.322398 0.042879 -0.945539
0.127845 0.077584 0.813033 0.874662 0.135028 -0.465310
0.132431 0.079020 0.828032 0.931697 -0.196573 -0.305379
0.096764 0.083119 0.847033 -0.256886 -0.964439 -0.066023
0.096935 0.081347 0.829033 -0.688963 0.498422 -0.525993
0.096411 0.079083 0.806034 -0.605477 0.787101 -0.116334
0.097231 0.078000 0.795034 -0.560751 0.807849 -0.180498
0.098368 0.077213 0.787034 -0.476888 0.834109 -0.276491
0.100100 0.076917 0.784034 -0.314687 0.879857 -0.355500
