ply
format ascii 1.0
element vertex 872
property float x
property float y
property float z
property float nx
property float ny
property float nz
end_header
0.035516 0.173056 0.693618 0.949703 -0.426593 1.412876
-0.038753 0.163888 0.628597 1.195009 0.069666 -0.192920
-0.034606 0.164220 0.630565 1.273820 -0.264042 -0.018561
-0.032525 0.164530 0.632439 1.155370 -0.401762 -0.009745
0.001618 0.165935 0.640491 0.920601 -0.241044 -0.220978
0.009895 0.166267 0.642391 1.041444 0.031160 -0.263783
0.014040 0.166567 0.644164 1.243681 -0.198238 -0.080628
0.017153 0.166857 0.645897 1.198624 -0.617091 0.326621
0.017167 0.167129 0.647568 1.459909 -0.448469 0.573111
0.018213 0.167406 0.649251 1.466615 -0.380898 0.382560
0.019260 0.167682 0.650930 1.112631 -0.621649 0.228355
0.023404 0.167969 0.652627 1.367141 -0.410930 0.223638
0.024451 0.168242 0.654287 1.357711 -0.335133 0.125073
0.026530 0.168518 0.655945 1.264804 -0.630347 0.533375
0.025511 0.168783 0.657592 1.665835 0.212971 0.500645
0.026557 0.169054 0.659239 1.409725 -0.471362 0.425105
0.026571 0.169322 0.660886 1.592428 -0.106862 0.359532
0.027617 0.169591 0.662525 1.608520 -0.156038 0.485752
0.028663 0.169860 0.664159 1.413227 -0.290323 0.159108
0.030742 0.170129 0.665775 1.425854 -0.266316 0.156250
0.030755 0.170395 0.667412 1.331248 -0.405325 0.164765
0.032834 0.170661 0.669012 1.372518 -0.439947 0.275078
0.032848 0.170927 0.670643 1.420136 -0.498668 0.602843
0.033893 0.171191 0.672251 1.328064 -0.459229 1.084672
0.031842 0.171459 0.673931 1.351583 -0.388214 1.143143
0.030823 0.171727 0.675593 1.620058 -0.126421 0.495027
0.031869 0.171991 0.677199 1.566004 -0.112523 0.292622
0.034980 0.172249 0.678732 1.118595 -0.640718 0.272264
0.037058 0.172507 0.680286 1.113188 -0.651112 0.288496
0.039136 0.172764 0.681829 1.098076 -0.715269 0.458508
0.040182 0.173023 0.683403 1.236095 -0.603398 0.356585
0.041227 0.173281 0.684972 1.200143 -0.638320 0.385396
0.043305 0.173534 0.686489 1.155122 -0.683193 0.446916
0.044351 0.173790 0.688045 1.201913 -0.676968 0.749068
0.044364 0.174051 0.689648 1.205560 -0.669771 0.786845
0.043345 0.174317 0.691304 1.186441 -0.529761 1.159930
0.039230 0.174604 0.693138 0.960493 -0.494076 1.349919
0.035115 0.174894 0.694992 0.927642 -0.217896 1.545103
-0.036114 0.165663 0.628442 1.157467 -0.176614 -0.148839
-0.032998 0.165976 0.630365 1.095541 -0.425235 -0.028928
-0.010215 0.166973 0.636455 0.967179 -0.502627 -0.023224
-0.002966 0.167291 0.638398 0.881297 -0.351909 -0.170520
0.005316 0.167608 0.640333 0.918712 -0.324132 -0.177572
0.012565 0.167914 0.642201 1.100298 -0.224208 -0.158758
0.017746 0.168206 0.643989 1.195430 -0.449745 0.067354
0.019827 0.168484 0.645695 1.166057 -0.576677 0.205595
0.021907 0.168761 0.647390 1.376460 -0.326791 0.141689
0.022955 0.169033 0.649061 1.126390 -0.666039 0.341577
0.024002 0.169304 0.650727 1.273484 -0.536806 0.275256
0.026082 0.169576 0.652396 1.173472 -0.590620 0.238063
0.028162 0.169847 0.654054 1.171907 -0.630021 0.316942
0.029209 0.170115 0.655699 1.112444 -0.730604 0.649648
0.029223 0.170381 0.657338 1.201988 -0.678321 0.734978
0.029237 0.170648 0.658977 1.208756 -0.650962 0.868836
0.029250 0.170915 0.660616 1.453543 -0.425597 0.869615
0.028231 0.171182 0.662262 1.384274 -0.527575 0.533909
0.030311 0.171447 0.663885 1.155159 -0.679443 0.432352
0.031357 0.171711 0.665509 1.180415 -0.600638 0.265478
0.033437 0.171973 0.667113 1.213744 -0.630086 0.387430
0.034484 0.172235 0.668724 1.243943 -0.639521 0.500634
0.035531 0.172497 0.670329 1.223392 -0.664286 0.739962
0.035544 0.172761 0.671953 1.197756 -0.649482 0.899660
0.034524 0.173029 0.673601 1.057580 -0.729498 0.873646
0.033505 0.173298 0.675255 1.115837 -0.708986 0.846507
0.036618 0.173549 0.676792 0.971437 -0.740890 0.368439
0.045941 0.174026 0.679712 1.380634 -0.518481 0.839686
0.044922 0.174292 0.681348 1.333236 -0.433137 1.113506
0.044935 0.174552 0.682948 1.608873 -0.154873 0.830139
0.043915 0.174820 0.684591 1.261228 -0.636708 0.560706
0.045994 0.175066 0.686101 1.292937 -0.496897 0.236241
0.046008 0.175326 0.687698 1.334458 -0.560501 0.467910
0.047054 0.175578 0.689244 1.518939 -0.287938 0.948499
0.046034 0.175846 0.690893 1.281655 -0.328924 1.280262
0.043982 0.176123 0.692603 1.254437 -0.347320 1.290885
0.041929 0.176403 0.694324 0.938607 -0.028979 1.602704
0.034713 0.176733 0.696365 1.215786 0.452522 1.453141
-0.034506 0.167418 0.628248 1.049614 -0.438251 -0.043664
-0.011708 0.168370 0.634412 0.914889 -0.577023 0.036938
-0.005488 0.168670 0.636347 0.938830 -0.482717 -0.053348
0.000732 0.168966 0.638250 0.910562 -0.332216 -0.175038
0.005917 0.169255 0.640096 0.897326 -0.365853 -0.157437
0.014204 0.169544 0.641989 0.993912 -0.403176 -0.098309
0.018355 0.169822 0.643752 1.160690 -0.420813 0.011000
0.020437 0.170095 0.645456 1.270836 -0.322577 0.020076
0.022519 0.170365 0.647149 1.364496 -0.308944 0.109759
0.023566 0.170635 0.648818 1.198252 -0.571623 0.233972
0.025648 0.170903 0.650493 1.202169 -0.627680 0.359154
0.026696 0.171170 0.652149 1.136517 -0.626535 0.263619
0.029812 0.171433 0.653812 0.999087 -0.726363 0.352719
0.032927 0.171695 0.655460 0.964924 -0.771039 0.479974
0.032941 0.171960 0.657088 1.092892 -0.694794 0.940445
0.031920 0.172227 0.658718 1.091963 -0.720945 0.844103
0.030900 0.172495 0.660353 1.064054 -0.746926 0.757652
0.032981 0.172755 0.661974 1.076024 -0.744573 0.587611
0.034028 0.173016 0.663593 1.087800 -0.729027 0.503996
0.035076 0.173276 0.665207 1.098010 -0.726923 0.520006
0.035089 0.173540 0.666830 1.238186 -0.632473 0.451545
0.037170 0.173794 0.668420 1.093334 -0.728513 0.516283
0.038218 0.174052 0.670018 1.063974 -0.751697 0.622372
0.039265 0.174309 0.671611 1.075367 -0.746417 0.612311
0.040312 0.174565 0.673199 1.010213 -0.766381 0.546271
0.040325 0.174827 0.674810 0.969542 -0.782371 0.571254
0.042406 0.175074 0.676360 1.069948 -0.736911 0.811674
0.045520 0.175313 0.677866 1.051540 -0.527152 0.045870
0.047601 0.175556 0.679393 1.380832 -0.541463 0.682378
0.047614 0.175816 0.680985 1.393633 -0.278247 1.194506
0.045560 0.176092 0.682658 1.410644 -0.171872 1.247407
0.044540 0.176362 0.684299 1.665143 0.090635 0.511315
0.045587 0.176612 0.685853 1.516857 0.086464 0.118169
0.047667 0.176852 0.687353 1.572380 0.228194 0.211860
0.047680 0.177111 0.688946 1.672647 0.214715 0.762943
0.046660 0.177381 0.690591 1.492247 0.488129 1.145741
0.044606 0.177663 0.692298 1.277816 0.549060 1.363774
0.043586 0.177936 0.693957 1.261023 0.600274 1.348334
0.036365 0.178283 0.695989 1.069996 0.189195 1.578072
-0.010096 0.169774 0.632477 1.112639 -0.598198 0.187667
-0.006977 0.170059 0.634318 0.974703 -0.609395 0.106221
-0.001789 0.170342 0.636210 0.934091 -0.497551 -0.041176
0.004435 0.170621 0.638106 0.919933 -0.461446 -0.078767
0.011693 0.170895 0.639998 0.982996 -0.436049 -0.076807
0.016881 0.171164 0.641803 1.052314 -0.490126 0.006508
0.019999 0.171431 0.643538 1.215207 -0.430827 0.065408
0.022083 0.171698 0.645237 1.304663 -0.337228 0.065473
0.026235 0.171959 0.646961 1.136254 -0.578289 0.177997
0.027284 0.172224 0.648619 1.037166 -0.676463 0.265003
0.030401 0.172482 0.650297 1.119730 -0.639029 0.270016
0.031450 0.172745 0.651940 1.184091 -0.585554 0.241559
0.035602 0.172995 0.653598 1.080862 -0.548679 0.091007
0.036650 0.173254 0.655223 1.180244 -0.594498 0.253423
0.037698 0.173513 0.656843 1.201327 -0.654026 0.440290
0.037711 0.173776 0.658458 1.161390 -0.685391 0.471500
0.039794 0.174028 0.660066 1.116827 -0.721999 0.549698
0.039807 0.174290 0.661677 1.002500 -0.775624 0.666633
0.040855 0.174545 0.663278 1.052122 -0.751237 0.763073
0.038800 0.174820 0.664909 0.988846 -0.778336 0.717632
0.041916 0.175061 0.666479 1.138982 -0.708225 0.530514
0.041930 0.175322 0.668085 1.191883 -0.676193 0.516269
0.044012 0.175568 0.669651 1.193694 -0.674268 0.511420
0.042991 0.175836 0.671273 1.094327 -0.734438 0.565540
0.045073 0.176079 0.672826 1.265514 -0.572104 0.334440
0.046121 0.176330 0.674397 1.227240 0.416668 -0.141628
0.048203 0.176570 0.675932 1.089363 -0.740105 0.609638
0.048216 0.176829 0.677521 1.032278 -0.755446 0.524706
0.048229 0.177087 0.679111 0.926138 1.130441 0.791027
0.047208 0.177357 0.680738 1.500447 -0.199953 1.091589
0.046187 0.177627 0.682370 1.466374 -0.121466 1.200928
0.045166 0.177899 0.684007 1.422887 0.786180 0.397085
0.045179 0.178159 0.685605 1.525281 0.390605 0.172305
0.046227 0.178406 0.687154 1.571640 0.288850 0.222461
0.046240 0.178665 0.688749 1.454603 0.801468 0.630713
0.045219 0.178938 0.690397 1.283057 0.832966 1.101212
0.042130 0.179240 0.692161 1.022184 0.925271 1.217120
0.040075 0.179530 0.693883 0.848895 0.744512 1.458946
0.032849 0.179896 0.695920 1.182681 0.727556 1.318325
-0.010554 0.171172 0.630471 1.035010 -0.669212 0.247847
-0.007433 0.171450 0.632322 1.011597 -0.682998 0.256763
-0.006383 0.171730 0.634086 0.959038 -0.614806 0.105728
-0.000155 0.171998 0.636010 0.932845 -0.543054 0.004866
0.015406 0.172510 0.639848 1.005686 -0.517839 0.010177
0.019562 0.172768 0.641620 1.014108 -0.623109 0.150047
0.021646 0.173031 0.643326 1.133979 -0.639318 0.287463
0.022696 0.173296 0.645000 1.171932 -0.543322 0.160332
0.025816 0.173551 0.646705 1.036286 -0.603008 0.134378
0.028935 0.173803 0.648394 1.085429 -0.570276 0.122983
0.032055 0.174053 0.650068 1.204919 -0.587270 0.271549
0.033104 0.174312 0.651706 1.133333 -0.616065 0.239633
0.034153 0.174570 0.653339 1.109077 -0.547752 0.110878
0.037272 0.174814 0.654976 1.151553 -0.493483 0.078297
0.040392 0.175055 0.656597 1.190423 -0.616069 0.311763
0.040405 0.175317 0.658205 1.158676 -0.676303 0.428029
0.042489 0.175562 0.659806 1.242685 -0.628274 0.447519
0.043537 0.175815 0.661403 1.180312 -0.691137 0.736719
0.043551 0.176075 0.663003 1.314346 -0.463741 1.098402
0.042529 0.176345 0.664614 1.501971 -0.388367 0.555183
0.043577 0.176596 0.666203 1.580537 -0.243062 0.785866
0.043590 0.176856 0.667803 1.307192 -0.324847 0.057714
0.045674 0.177095 0.669365 1.333806 -0.576425 0.773430
0.044652 0.177366 0.670981 1.652939 0.044664 0.468310
0.047771 0.177591 0.672506 1.279865 -0.374969 0.073420
0.048819 0.177838 0.674069 1.512308 0.722906 0.687101
0.048832 0.178096 0.675655 1.504107 0.728799 0.568833
0.045740 0.178393 0.677338 1.133433 0.766053 1.320445
0.043683 0.178678 0.679002 1.254837 0.987674 0.625716
0.042662 0.178952 0.680639 1.135562 1.057459 0.730063
0.042675 0.179213 0.682241 1.142912 1.056225 0.683241
0.041653 0.179488 0.683886 1.157104 1.047031 0.716814
0.039597 0.179779 0.685581 1.136721 1.056642 0.732711
0.040645 0.180026 0.687144 1.220991 1.008628 0.722399
0.039624 0.180303 0.688802 1.206450 1.017873 0.722127
0.038602 0.180581 0.690465 1.070636 1.074610 0.829719
0.035511 0.180893 0.692244 1.035775 0.958782 1.159427
0.031385 0.181225 0.694097 1.034475 0.923234 1.212169
-0.008938 0.172563 0.628554 1.011597 -0.682998 0.256763
-0.004779 0.172832 0.630450 1.011597 -0.682998 0.256763
0.017038 0.173845 0.637981 0.931106 -0.591946 0.061960
0.022233 0.174089 0.639788 1.008766 -0.703634 0.301364
0.024319 0.174346 0.641491 1.085711 -0.701093 0.384231
0.025369 0.174607 0.643161 1.031534 -0.696228 0.305074
0.026418 0.174868 0.644826 1.026519 -0.678233 0.259306
0.030576 0.175107 0.646540 1.027007 -0.591405 0.111604
0.032662 0.175357 0.648201 1.105319 -0.641933 0.260112
0.035784 0.175597 0.649866 1.116379 -0.630830 0.249723
0.035797 0.175861 0.651484 1.124950 -0.634708 0.266996
0.037883 0.176106 0.653117 1.191780 -0.564628 0.214356
0.039968 0.176350 0.654740 1.177364 -0.575478 0.216050
0.044125 0.176573 0.656357 1.135222 -0.636634 0.283156
0.044138 0.176833 0.657954 1.295879 -0.573059 0.399712
0.046223 0.177072 0.659546 1.397703 0.845110 0.488169
0.045201 0.177342 0.661143 1.329557 0.777261 1.114942
0.046250 0.177590 0.662730 1.520786 0.625899 0.948315
0.044191 0.177872 0.664343 1.551417 0.003734 1.117503
0.047312 0.178096 0.665901 0.809288 -0.820564 0.632872
0.046290 0.178367 0.667506 1.033046 1.046210 0.986604
0.047338 0.178613 0.669080 0.970647 -0.785750 0.677663
0.045280 0.178899 0.670711 1.312135 0.811484 0.223459
0.047365 0.179130 0.672259 0.890611 1.128236 0.462182
0.046342 0.179403 0.673875 1.328192 0.896521 0.430116
0.046356 0.179662 0.675467 1.310823 0.868457 0.995490
0.042226 0.179982 0.677185 1.105514 0.984194 1.053179
0.041204 0.180259 0.678821 1.170456 1.036411 0.752897
0.039146 0.180552 0.680500 1.157091 1.041994 0.768698
0.040195 0.180798 0.682071 1.125014 1.065704 0.650898
0.038137 0.181093 0.683763 1.281166 0.969119 0.657651
0.039186 0.181338 0.685331 1.232050 1.001165 0.725009
0.037128 0.181636 0.687036 1.308134 0.947446 0.627033
0.038177 0.181880 0.688601 1.191787 1.016235 0.806650
0.036119 0.182180 0.690319 1.072764 1.039431 0.958215
0.033026 0.182500 0.692102 0.995739 1.015272 1.089476
0.041631 0.177883 0.654501 1.214671 -0.429800 0.063883
0.043717 0.178119 0.656109 1.206161 0.790166 0.076037
0.043731 0.178379 0.657706 1.629409 -0.139716 0.684895
0.043744 0.178639 0.659303 1.330308 0.912066 0.495693
0.043757 0.178899 0.660901 1.569618 0.625345 0.675831
0.043770 0.179159 0.662498 1.542162 0.675401 0.678773
0.043784 0.179419 0.664095 1.628640 -0.063490 0.866831
0.043797 0.179679 0.665692 1.620154 0.461962 0.485555
0.043810 0.179939 0.667290 1.674512 0.242486 0.593560
0.043823 0.180199 0.668887 1.469588 0.779097 0.587127
0.043837 0.180458 0.670484 1.384009 0.842100 0.429071
0.042814 0.180735 0.672105 1.313560 0.060938 -0.107396
0.038721 0.181849 0.678639 1.178975 1.024406 0.803549
0.036676 0.182411 0.681938 1.209405 1.018471 0.657592
0.036689 0.182674 0.683553 1.192110 1.028213 0.695564
0.036702 0.182937 0.685169 1.230478 1.004545 0.632724
0.035680 0.183220 0.686831 1.104260 1.069211 0.766569
0.033621 0.183525 0.688548 1.078950 1.042315 0.941211
0.006817 0.010817 0.680121 0.413813 1.158999 0.717966
0.008508 0.011593 0.682107 1.044946 -0.727034 0.864506
0.006357 0.011318 0.683710 0.973528 -0.753692 0.858015
0.001238 0.008955 0.666432 1.100544 -0.709066 0.788192
0.000047 0.008945 0.668131 1.100544 -0.709066 0.788192
0.001732 0.009724 0.670170 1.083104 -0.717525 0.717696
0.003418 0.010501 0.672199 1.057574 -0.727140 0.687289
0.010864 0.012849 0.674858 1.075436 -0.715568 0.644553
0.015434 0.014407 0.677163 1.129118 -0.662790 0.508276
0.020009 0.015960 0.679443 1.143601 -0.684038 0.662884
0.020744 0.016467 0.681300 1.176881 -0.669514 0.748948
0.022440 0.017233 0.683249 1.217624 -0.639122 0.841193
0.020293 0.016957 0.684812 1.165254 -0.664923 0.888002
0.021029 0.017461 0.686659 1.163552 -0.659026 0.925157
0.019843 0.017446 0.688324 0.428302 1.149165 0.583749
0.021542 0.018210 0.690252 1.129029 -0.685467 0.883691
0.019392 0.017936 0.691836 0.428302 1.149165 0.583749
0.022056 0.018957 0.693835 1.112346 -0.693892 0.884153
0.020868 0.018943 0.695505 1.154241 -0.650959 0.980769
0.022571 0.019702 0.697407 1.169751 -0.562784 1.172420
0.019455 0.019174 0.698934 1.113221 -0.628054 1.109036
0.016337 0.018647 0.700476 1.069265 -0.646586 1.117472
0.004554 0.010484 0.659256 1.023716 -0.723819 0.561598
0.011986 0.012832 0.662064 1.184545 -0.653583 0.608899
0.013674 0.013604 0.664094 1.184585 -0.664913 0.740249
0.012487 0.013591 0.665753 1.194965 -0.641756 0.917081
0.011299 0.013579 0.667418 1.194965 -0.641756 0.917081
0.010111 0.013567 0.669087 1.049966 -0.728877 0.827884
0.011801 0.014337 0.671099 0.970847 -0.760734 0.764831
0.015412 0.015625 0.673320 1.100524 -0.700509 0.617958
0.019987 0.017170 0.675627 1.095305 -0.696537 0.579393
0.020722 0.017675 0.677491 1.190774 -0.640714 0.562219
0.024340 0.018955 0.679654 1.250923 -0.614147 0.638368
0.025078 0.019457 0.681499 1.241011 -0.624715 0.668896
0.026777 0.020216 0.683436 1.274566 -0.604052 0.765445
0.025593 0.020201 0.685080 1.222315 -0.636154 0.840010
0.027294 0.020958 0.687003 1.212341 -0.640040 0.861633
0.027071 0.021200 0.688739 1.255477 -0.611397 0.854116
0.026849 0.021442 0.690474 1.172539 -0.663435 0.870021
0.026626 0.021685 0.692209 1.194972 -0.642744 0.912094
0.027367 0.022183 0.694026 1.204304 -0.627900 0.952153
0.027145 0.022424 0.695758 1.164143 -0.600923 1.103729
0.025958 0.022411 0.697415 1.232933 -0.419259 1.304399
0.023806 0.022143 0.699004 1.307684 -0.398032 1.243490
0.022618 0.022132 0.700673 1.520324 -0.188151 1.113497
0.023360 0.022629 0.702485 1.559049 -0.001699 1.164844
0.021205 0.022364 0.704094 1.513857 -0.028597 1.238723
0.020016 0.022354 0.705777 1.314713 -0.090763 1.458987
0.014960 0.021333 0.707223 1.091588 -0.562255 1.250811
0.013767 0.021326 0.708926 1.228038 -0.442385 1.282965
0.009090 0.013279 0.657800 1.099882 -0.641058 0.401490
0.012693 0.014568 0.660105 1.223012 -0.586943 0.453563
0.015341 0.015596 0.662265 1.307302 -0.529426 0.477849
0.017031 0.016362 0.664285 1.350161 -0.509891 0.537077
0.017764 0.016867 0.666175 1.325894 -0.542472 0.574776
0.018497 0.017372 0.668059 1.324707 -0.543184 0.573329
0.020190 0.018134 0.670053 1.215638 -0.628985 0.582208
0.023806 0.019411 0.672263 1.084372 -0.699498 0.568273
0.027425 0.020684 0.674452 1.126038 -0.675543 0.552274
0.030085 0.021698 0.676513 1.173663 -0.669517 0.691339
0.030824 0.022196 0.678348 1.186522 -0.663758 0.741088
0.031564 0.022693 0.680178 1.239939 -0.627577 0.801456
0.031343 0.022934 0.681903 1.210625 -0.638403 0.880298
0.032084 0.023430 0.683725 1.223907 -0.619515 0.932597
0.029938 0.023160 0.685258 1.199651 -0.648402 0.859734
0.031642 0.023910 0.687169 1.291437 -0.590599 0.778507
0.032385 0.024405 0.688981 1.281434 -0.596815 0.689578
0.033128 0.024899 0.690788 1.379732 -0.511741 0.717311
0.033871 0.025393 0.692589 1.466357 -0.361178 0.993750
0.033651 0.025632 0.694304 1.395834 -0.399652 1.099444
0.031502 0.025365 0.695860 1.232372 -0.229510 1.459821
0.028387 0.024847 0.697351 1.196422 -0.413934 1.344482
0.026234 0.024583 0.698930 1.205669 -0.266848 1.457222
0.023115 0.024069 0.700449 1.441679 -0.095389 1.316524
0.022892 0.024312 0.702190 1.534583 0.001882 1.214924
0.021702 0.024303 0.703864 1.544686 -0.042991 1.173758
0.021479 0.024546 0.705607 1.497757 -0.160690 1.185760
0.017387 0.023788 0.707107 1.139249 -0.372901 1.426802
0.016195 0.023782 0.708802 1.242279 -0.450287 1.257905
0.014034 0.023527 0.710447 1.205764 -0.455165 1.290310
0.012840 0.023524 0.712155 1.125277 -0.475366 1.337166
0.009068 0.014512 0.653911 1.140021 -0.599450 0.358514
0.013629 0.016052 0.656373 1.207849 -0.591372 0.437736
0.015319 0.016816 0.658416 1.243600 -0.606604 0.567607
0.016050 0.017321 0.660319 1.237636 -0.611140 0.568944
0.017742 0.018082 0.662342 1.295336 -0.557451 0.531647
0.019434 0.018842 0.664356 1.304694 -0.566505 0.601715
0.021129 0.019600 0.666359 1.280212 -0.587612 0.609016
0.021864 0.020101 0.668234 1.215520 -0.613325 0.517599
0.026442 0.021624 0.670566 1.184574 -0.585294 0.387193
0.030063 0.022888 0.672759 1.149211 -0.606716 0.385456
0.033687 0.024149 0.674932 1.626702 -0.032892 0.559349
0.034428 0.024643 0.676760 1.599584 -0.047798 0.465734
0.035170 0.025137 0.678582 1.623697 -0.088046 0.632295
0.034950 0.025376 0.680297 1.625700 -0.087685 0.649107
0.035692 0.025869 0.682112 1.468468 -0.396841 0.875121
0.035473 0.026107 0.683824 1.293424 -0.565695 0.940255
0.034290 0.026094 0.685440 1.331001 -0.534769 0.934422
0.035034 0.026585 0.687247 1.412601 -0.469583 0.852880
0.034814 0.026824 0.688959 1.420519 -0.468588 0.769683
0.035559 0.027314 0.690759 1.431569 -0.456098 0.736123
0.035340 0.027553 0.692468 1.579652 -0.182632 0.930709
0.034155 0.027540 0.694095 1.426841 -0.274444 1.206725
0.032970 0.027529 0.695728 1.161078 -0.456611 1.329406
0.029853 0.027017 0.697212 1.144129 -0.385195 1.412909
0.027700 0.026758 0.698785 1.188160 -0.359521 1.401864
0.024580 0.026251 0.700298 1.242479 -0.384355 1.331360
0.023390 0.026244 0.701964 1.575954 -0.023266 1.114817
0.022200 0.026237 0.703635 1.516052 -0.179539 1.131833
0.022944 0.026729 0.705440 1.397630 -0.358391 1.158063
0.020786 0.026475 0.707055 1.324267 -0.295358 1.326807
0.019595 0.026470 0.708740 1.201962 -0.456457 1.292495
0.017434 0.026219 0.710373 1.210211 -0.511153 1.210118
0.016241 0.026217 0.712070 1.177561 -0.481029 1.285826
0.015047 0.026215 0.713773 1.148389 -0.477418 1.316181
0.001381 0.013691 0.648886 1.070841 -0.603535 0.294931
0.008815 0.015995 0.651815 1.128443 -0.583781 0.315573
0.015297 0.018037 0.654567 1.204814 -0.582941 0.412356
0.018905 0.019307 0.656878 1.200050 -0.590067 0.421483
0.021557 0.020318 0.659038 1.197718 -0.632118 0.544281
0.022292 0.020818 0.660923 1.189897 -0.653685 0.631113
0.022067 0.021063 0.662676 1.210644 -0.647460 0.700630
0.023763 0.021816 0.664678 1.214838 -0.643730 0.685164
0.025460 0.022567 0.666669 1.188453 -0.623995 0.494053
0.029081 0.023824 0.668887 1.175679 -0.598351 0.403400
0.033665 0.025332 0.671201 1.485070 -0.163165 0.289498
0.034406 0.025824 0.673034 1.627852 -0.033221 0.565665
0.035148 0.026316 0.674863 1.669538 0.172047 0.697027
0.034928 0.026555 0.676577 1.608185 0.131257 0.404756
0.036634 0.027298 0.678504 1.508789 -0.131590 0.309183
0.038341 0.028039 0.680419 1.416703 -0.339451 0.347771
0.039085 0.028528 0.682224 1.616161 0.001345 0.483633
0.038867 0.028765 0.683926 1.590807 0.139042 1.137061
0.036721 0.028502 0.685436 1.472088 -0.308085 1.075610
0.037466 0.028990 0.687236 1.577368 -0.104206 1.048630
0.036283 0.028978 0.688850 1.589848 -0.186701 0.855874
0.037994 0.029714 0.690732 1.621598 0.328193 0.468506
0.036810 0.029703 0.692349 1.608342 -0.054014 0.502401
0.037558 0.030189 0.694135 1.325753 -0.536981 0.944040
0.037339 0.030427 0.695837 1.228854 -0.628464 0.865994
0.035188 0.030169 0.697384 1.137840 -0.545767 1.234221
0.033036 0.029912 0.698941 1.085124 -0.534229 1.295533
0.028948 0.029163 0.700365 1.090438 -0.557223 1.259240
0.027760 0.029157 0.702017 1.164234 -0.585298 1.136642
0.025603 0.028905 0.703608 1.201550 -0.625608 0.967940
0.027317 0.029638 0.705467 1.213560 -0.635562 0.886010
0.027096 0.029879 0.707192 1.157060 -0.653549 0.964936
0.026875 0.030119 0.708917 1.139971 -0.645542 1.025317
0.021585 0.029379 0.712097 1.049860 -0.566272 1.277247
0.018453 0.028889 0.713681 1.084643 -0.451486 1.391245
0.014349 0.028158 0.715231 1.104399 -0.335553 1.478138
0.011213 0.027673 0.716849 1.111871 -0.360058 1.455140
0.002084 0.015446 0.646911 1.081905 -0.603449 0.304779
0.010481 0.017986 0.650005 1.131606 -0.575515 0.304311
0.014088 0.019251 0.652352 1.158801 -0.578280 0.339549
0.017698 0.020512 0.654678 1.207092 -0.566337 0.379626
0.020350 0.021518 0.656849 1.229813 -0.586134 0.464439
0.025885 0.023280 0.659401 1.234343 -0.548019 0.382989
0.028543 0.024280 0.661533 1.190453 -0.615851 0.472957
0.031203 0.025279 0.663650 1.229751 -0.635898 0.772539
0.029059 0.025016 0.665128 1.234102 -0.633197 0.761606
0.029798 0.025509 0.666983 1.235900 -0.631742 0.771798
0.030538 0.026002 0.668832 1.217385 -0.584964 0.438242
0.034165 0.027245 0.671026 1.438662 -0.438740 0.640811
0.033945 0.027485 0.672744 1.667511 0.111465 0.727204
0.034687 0.027974 0.674572 1.513620 -0.341887 0.810480
0.033504 0.027964 0.676178 1.661891 0.241603 0.622032
0.035211 0.028701 0.678108 1.481062 0.059293 0.177290
0.036919 0.029438 0.680027 1.434449 -0.407360 0.510211
0.038628 0.030173 0.681936 1.616161 0.001345 0.483633
0.038409 0.030410 0.683638 1.518283 0.105144 1.272184
0.037226 0.030400 0.685243 1.591829 0.146262 1.135578
0.037008 0.030638 0.686947 1.620861 0.068407 1.035225
0.035824 0.030628 0.688561 1.651867 0.183213 0.943060
0.035605 0.030866 0.690268 1.599652 -0.171378 0.678436
0.035386 0.031105 0.691974 1.445141 -0.335858 0.400424
0.039033 0.032326 0.694013 1.416174 -0.424497 0.496546
0.041715 0.033299 0.695950 1.297512 -0.546007 0.995745
0.039565 0.033045 0.697484 1.176898 -0.564529 1.160682
0.038380 0.033036 0.699102 1.109642 -0.523888 1.290054
0.034291 0.032295 0.700508 1.109607 -0.531524 1.279826
0.033104 0.032289 0.702145 1.192652 -0.552488 1.162998
0.030948 0.032040 0.703720 1.169032 -0.634502 1.007220
0.031697 0.032523 0.705499 1.262735 -0.595648 0.914882
0.031477 0.032762 0.707211 1.247774 -0.599274 0.947028
0.032227 0.033243 0.708983 1.170776 -0.589730 1.118968
0.030068 0.032997 0.710578 1.125409 -0.506201 1.300087
0.026938 0.032510 0.712129 1.075881 -0.463133 1.385008
0.010512 0.029624 0.718314 1.225836 -0.412532 1.318709
0.009314 0.029630 0.720036 1.168826 -0.407765 1.373692
0.008115 0.029637 0.721764 1.137658 -0.389391 1.413817
0.006623 0.018206 0.645535 1.077333 -0.608982 0.310578
0.014066 0.020473 0.648497 1.110184 -0.611883 0.349345
0.017676 0.021728 0.650846 1.182800 -0.610636 0.444793
0.020328 0.022728 0.653034 1.214020 -0.593398 0.454016
0.023943 0.023977 0.655344 1.188310 -0.567579 0.356106
0.026601 0.024973 0.657498 1.223820 -0.513552 0.306593
0.031181 0.026467 0.659902 1.341407 -0.376866 0.273123
0.032882 0.027208 0.661890 1.495599 -0.292072 0.457168
0.033622 0.027698 0.663740 1.493883 -0.278607 0.431325
0.033402 0.027937 0.665459 1.414112 -0.410003 0.458222
0.035106 0.028675 0.667424 1.279182 -0.575593 0.550106
0.037773 0.029660 0.669497 1.266390 -0.603751 0.645426
0.037554 0.029898 0.671204 1.303557 -0.563749 0.912868
0.038298 0.030383 0.673025 1.370394 -0.518824 0.812056
0.037116 0.030374 0.674618 1.321894 -0.563459 0.811533
0.038825 0.031106 0.676543 1.286945 -0.593335 0.701653
0.039571 0.031590 0.678351 1.426081 -0.456102 0.656281
0.041282 0.032319 0.680259 1.325267 -0.541525 0.928011
0.040100 0.032310 0.681851 1.423624 -0.402840 1.028413
0.038917 0.032301 0.683448 1.492070 -0.043701 1.267757
0.037733 0.032293 0.685051 1.563295 0.102011 1.190571
0.037515 0.032530 0.686753 1.632014 -0.078881 0.799290
0.037297 0.032768 0.688454 1.536202 -0.308275 0.760307
0.038045 0.033249 0.690244 1.532570 -0.269970 0.540027
0.038794 0.033730 0.692029 1.475543 -0.282561 0.392528
0.042445 0.034940 0.694059 1.600974 -0.153783 0.626050
0.044164 0.035661 0.695907 1.554984 -0.273127 0.784410
0.042980 0.035653 0.697509 1.528147 -0.211565 1.067079
0.041796 0.035646 0.699117 1.306593 -0.236242 1.389942
0.038674 0.035155 0.700584 1.179358 -0.354290 1.413073
0.037488 0.035150 0.702208 1.294031 -0.269688 1.378913
0.035333 0.034904 0.703768 1.363095 -0.436367 1.101585
0.035114 0.035141 0.705470 1.643253 -0.037873 0.787041
0.034896 0.035379 0.707172 1.511627 -0.317793 0.928334
0.035648 0.035856 0.708933 1.525766 -0.251366 1.016446
0.033489 0.035614 0.710517 1.254627 -0.292758 1.398935
0.030358 0.035133 0.712057 1.156597 -0.206970 1.525555
0.027225 0.034655 0.713612 1.156728 -0.225759 1.515509
0.024090 0.034179 0.715183 1.070554 -0.268133 1.540504
0.013926 0.032281 0.718193 1.171943 -0.376317 1.400072
0.010784 0.031813 0.719821 1.302064 -0.396159 1.252827
0.010558 0.032059 0.721582 1.365812 -0.444834 1.080433
0.007329 0.019943 0.643584 1.068455 -0.614846 0.313220
0.015735 0.022443 0.646717 1.110528 -0.619636 0.365784
0.020307 0.023938 0.649219 1.211131 -0.594359 0.451284
0.021041 0.024432 0.651121 1.195640 -0.608762 0.462261
0.023697 0.025424 0.653300 1.210619 -0.555333 0.362657
0.027316 0.026661 0.655601 1.211864 -0.605389 0.483857
0.029016 0.027400 0.657610 1.306675 -0.532139 0.483699
0.031678 0.028385 0.659743 1.410184 -0.172257 0.182392
0.032419 0.028873 0.661598 1.510686 -0.082055 0.279940
0.034122 0.029607 0.663576 1.406142 -0.338748 0.327811
0.036789 0.030587 0.665669 1.278264 -0.510665 0.379494
0.040421 0.031811 0.667870 1.285238 -0.571058 0.551243
0.042130 0.032539 0.669809 1.368481 -0.520871 0.810095
0.039985 0.032285 0.671268 1.287790 -0.576576 0.913216
0.039768 0.032522 0.672967 1.277389 -0.591858 0.875426
0.040514 0.033003 0.674778 1.254553 -0.616812 0.688743
0.043190 0.033974 0.676804 1.231477 -0.631808 0.674621
0.042973 0.034209 0.678492 1.310183 -0.574128 0.801662
0.043722 0.034688 0.680285 1.447248 -0.425165 0.871803
0.042540 0.034680 0.681869 1.200705 -0.492972 1.247011
0.039426 0.034187 0.683260 1.316319 -0.197266 1.404955
0.038242 0.034181 0.684860 1.456376 -0.338341 1.065810
0.037057 0.034175 0.686464 1.632014 -0.078881 0.799290
0.038773 0.034897 0.688349 1.447762 -0.429219 0.651125
0.039522 0.035375 0.690135 1.328772 -0.516617 0.495895
0.042208 0.036335 0.692088 1.339321 -0.404090 0.304672
0.042959 0.036811 0.693857 1.475115 -0.399745 0.703379
0.043711 0.037286 0.695622 1.573632 -0.225947 0.847061
0.042527 0.037281 0.697224 1.518375 0.040094 1.256847
0.042311 0.037516 0.698908 1.425982 -0.003743 1.373844
0.040157 0.037272 0.700444 1.322334 -0.139683 1.430239
0.038971 0.037268 0.702062 1.269352 -0.208949 1.441366
0.035845 0.036788 0.703548 1.452899 -0.158231 1.263327
0.035627 0.037025 0.705247 1.604136 -0.150941 0.853180
0.035409 0.037262 0.706946 1.597836 -0.170864 0.655422
0.036162 0.037737 0.708706 1.468440 -0.251392 1.156436
0.034002 0.037499 0.710286 1.350981 -0.007435 1.453597
0.031841 0.037262 0.711877 1.184287 0.030295 1.590933
0.028706 0.036791 0.713426 1.183864 -0.111379 1.550956
0.026542 0.036558 0.715041 1.185536 -0.208344 1.505985
0.021459 0.035619 0.716523 1.041954 -0.280757 1.546933
0.013229 0.034221 0.719650 1.353816 -0.403079 1.170630
0.013004 0.034466 0.721403 1.389288 -0.457807 0.994121
0.012779 0.034711 0.723156 1.259043 -0.355750 1.342417
0.011874 0.022669 0.642256 1.071331 -0.581417 0.258499
0.018365 0.024652 0.645100 1.138275 -0.607111 0.372316
0.021979 0.025888 0.647461 1.200618 -0.601484 0.451331
0.025597 0.027120 0.649800 1.266579 -0.532465 0.403468
0.028256 0.028104 0.651975 1.280987 -0.444440 0.277615
0.030917 0.029085 0.654134 1.340333 -0.475453 0.424091
0.031657 0.029572 0.656000 1.407042 -0.473579 0.630589
0.033359 0.030303 0.657998 1.598653 -0.149847 0.600064
0.032176 0.030298 0.659584 1.620826 -0.016669 0.515977
0.033880 0.031028 0.661568 1.425840 -0.273977 0.287676
0.036549 0.032001 0.663670 1.254000 -0.412438 0.206521
0.042109 0.033705 0.666134 1.248827 -0.402300 0.189994
0.043818 0.034428 0.668074 1.352635 -0.494046 0.496744
0.046493 0.035394 0.670125 1.503594 -0.345381 0.618209
0.043385 0.034900 0.671452 1.391010 -0.500545 0.770719
0.045098 0.035621 0.673371 1.225273 -0.637758 0.798100
0.044882 0.035855 0.675055 1.475081 -0.366683 0.948710
0.046596 0.036574 0.676958 1.580485 -0.220302 0.793468
0.046381 0.036808 0.678637 1.366687 -0.508726 0.594906
0.048097 0.037525 0.680525 1.638304 0.052229 0.959476
0.046916 0.037517 0.682096 1.471198 -0.067699 1.288417
0.044769 0.037270 0.683572 1.280969 -0.397462 1.276680
0.040685 0.036544 0.684863 1.263071 -0.476372 1.196930
0.040469 0.036780 0.686555 1.330123 -0.557216 0.696961
0.045089 0.038213 0.688706 1.272685 -0.591871 0.600498
0.046810 0.038925 0.690563 1.577205 -0.189179 0.929272
0.046595 0.039159 0.692236 1.576394 0.219562 1.172169
0.045412 0.039154 0.693825 1.510214 -0.186697 1.137585
0.045197 0.039387 0.695501 1.540305 0.155598 1.241240
0.044013 0.039384 0.697097 1.464034 0.038189 1.337504
0.042828 0.039380 0.698699 1.545778 0.075821 1.218507
0.041643 0.039378 0.700306 1.476779 -0.006916 1.305773
0.040456 0.039376 0.701918 1.353946 -0.071994 1.428991
0.038299 0.039139 0.703467 1.310613 -0.207590 1.404318
0.036141 0.038903 0.705026 1.534276 -0.157823 1.111182
0.036894 0.039376 0.706786 1.654220 0.017210 0.698496
0.037648 0.039847 0.708540 1.543877 0.303679 1.223649
0.035488 0.039613 0.710115 1.288556 0.161497 1.534210
0.032354 0.039147 0.711644 1.221934 0.071530 1.573952
0.030190 0.038917 0.713242 1.249846 -0.032904 1.531798
0.028025 0.038688 0.714850 1.256572 -0.181824 1.467010
0.024886 0.038227 0.716421 1.052248 -0.256495 1.556061
0.020771 0.037536 0.717962 1.073737 -0.273253 1.535882
0.015679 0.036615 0.719481 1.226219 -0.402525 1.328783
0.014481 0.036626 0.721186 1.420548 -0.324663 1.160785
0.014257 0.036870 0.722935 1.469123 -0.193286 1.210645
-0.000622 0.020692 0.636311 1.031149 -0.563410 0.202376
0.014503 0.024881 0.640644 1.074288 -0.563207 0.233121
0.021958 0.027094 0.643657 1.286185 -0.527062 0.427389
0.022693 0.027584 0.645562 1.403748 -0.457165 0.547507
0.025351 0.028563 0.647762 1.321768 -0.455011 0.352650
0.025128 0.028806 0.649505 1.350723 -0.379685 0.290049
0.028750 0.030026 0.651825 1.352550 -0.245623 0.162526
0.031414 0.030999 0.653983 1.343390 -0.191778 0.115935
0.033117 0.031726 0.655987 1.400424 -0.490754 0.729587
0.031934 0.031723 0.657570 1.650492 0.000362 0.688418
0.031713 0.031963 0.659292 1.548098 -0.244283 0.549522
0.034382 0.032931 0.661409 1.388870 -0.356305 0.320607
0.038980 0.034380 0.663767 1.199951 -0.408318 0.149473
0.043581 0.035826 0.666100 1.603583 -0.077032 0.508598
0.042400 0.035820 0.667665 1.586264 -0.190304 0.624148
0.044112 0.036538 0.669598 1.455120 -0.250071 0.313700
0.043896 0.036773 0.671284 1.369758 -0.418506 0.377128
0.046575 0.037729 0.673318 1.424413 -0.440786 0.573249
0.046360 0.037963 0.674996 1.567305 -0.247843 0.796344
0.046145 0.038197 0.676674 1.580485 -0.220302 0.793468
0.044963 0.038192 0.678244 1.621424 0.313693 0.461382
0.046681 0.038904 0.680136 1.577404 0.265880 0.332000
0.046466 0.039138 0.681812 1.473792 0.135491 1.341827
0.044316 0.038895 0.683287 1.357722 -0.105920 1.410893
0.042166 0.038654 0.684772 1.117092 -0.643380 1.066562
0.043885 0.039364 0.686648 1.192588 -0.659570 0.717911
0.047542 0.040546 0.688699 1.466122 -0.404392 0.852492
0.047328 0.040780 0.690370 1.521889 -0.070317 1.202913
0.046145 0.040776 0.691953 1.544023 0.072520 1.220926
0.044961 0.040774 0.693541 1.580360 -0.007226 1.113029
0.044746 0.041008 0.695217 1.529289 -0.167679 1.113338
0.043561 0.041006 0.696813 1.488822 -0.166852 1.197371
0.042376 0.041006 0.698414 1.532280 -0.027164 1.206294
0.042160 0.041240 0.700095 1.464002 -0.073093 1.296339
0.040974 0.041241 0.701704 1.463591 0.009137 1.329692
0.038815 0.041008 0.703249 1.281680 -0.000301 1.516209
0.036656 0.040777 0.704805 1.489251 -0.104084 1.240449
0.036438 0.041013 0.706499 1.650528 -0.004369 0.789034
0.035249 0.041017 0.708131 1.543877 0.303679 1.223649
0.035031 0.041254 0.709828 1.374379 -0.042855 1.418836
0.033841 0.041258 0.711468 1.290723 -0.265111 1.385480
0.030703 0.040801 0.713006 1.247262 -0.081045 1.518218
0.029511 0.040808 0.714662 1.302519 -0.343530 1.307967
0.028318 0.040816 0.716323 1.340002 -0.242209 1.350767
0.026150 0.040594 0.717943 1.118313 -0.284344 1.504563
0.022031 0.039913 0.719488 1.033540 -0.267892 1.558245
0.017910 0.039235 0.721053 1.062740 -0.253818 1.552520
0.015737 0.039019 0.722714 1.334646 -0.142546 1.416835
0.013562 0.038804 0.724387 1.177839 -0.060498 1.572191
0.018095 0.027325 0.639211 1.073691 -0.487515 0.136200
0.023632 0.029031 0.641922 1.333365 -0.469330 0.398240
0.026291 0.030005 0.644135 1.498651 -0.293743 0.468852
0.025106 0.030005 0.645723 1.402842 -0.389722 0.394995
0.027767 0.030975 0.647916 1.474476 -0.253647 0.354644
0.028507 0.031459 0.649799 1.497330 -0.092179 0.262566
0.032133 0.032668 0.652111 1.363566 -0.209843 0.149875
0.033838 0.033390 0.654118 1.329461 -0.132326 0.069583
0.035543 0.034112 0.656114 1.442423 -0.249403 0.290895
0.037250 0.034832 0.658100 1.336780 -0.466605 0.399574
0.036068 0.034830 0.659673 1.261662 -0.574773 0.500216
0.038740 0.035788 0.661777 1.397072 -0.402695 0.404871
0.040450 0.036504 0.663737 1.309713 -0.269287 0.133193
0.044091 0.037697 0.665940 1.553724 -0.102261 0.382649
0.043875 0.037933 0.667626 1.558380 -0.161854 0.453856
0.045589 0.038645 0.669555 1.379224 -0.145381 0.128637
0.047305 0.039355 0.671474 1.330579 -0.471320 0.396754
0.049987 0.040302 0.673498 1.575921 -0.083436 0.424592
0.049774 0.040535 0.675166 1.623985 0.413402 0.956689
0.049560 0.040767 0.676834 1.639341 0.156753 0.995519
0.048379 0.040763 0.678394 1.448305 0.262801 1.373607
0.047197 0.040760 0.679958 1.496202 0.252878 1.310039
0.046983 0.040994 0.681631 1.655084 0.224400 0.572914
0.046768 0.041227 0.683304 1.544327 -0.289803 0.683436
0.047522 0.041696 0.685075 1.635801 -0.028989 0.606967
0.048276 0.042163 0.686841 1.585430 0.590752 0.671756
0.049031 0.042630 0.688602 1.653602 0.378419 0.730680
0.048817 0.042863 0.690267 1.540074 0.378025 1.207231
0.046665 0.042628 0.691757 1.540359 0.631041 0.977564
0.046450 0.042861 0.693428 1.670208 0.152380 0.756669
0.046236 0.043094 0.695098 1.631033 -0.062715 0.862369
0.046022 0.043327 0.696769 1.563597 -0.249538 0.834548
0.045807 0.043560 0.698439 1.428380 -0.334629 1.132911
0.043651 0.043329 0.699960 1.273787 -0.272505 1.396272
0.041493 0.043100 0.701491 1.329959 -0.172614 1.405605
0.040305 0.043103 0.703103 1.305930 -0.150873 1.440083
0.038145 0.042876 0.704652 1.384876 -0.281274 1.263455
0.037928 0.043112 0.706341 1.445480 -0.374653 1.027393
0.036738 0.043117 0.707967 1.467528 -0.291438 1.109996
0.037495 0.043583 0.709718 1.358708 -0.372067 1.204012
0.035331 0.043360 0.711293 1.389235 -0.135323 1.361745
0.034140 0.043367 0.712933 1.317332 -0.113606 1.447019
0.031000 0.042918 0.714475 1.347138 -0.308410 1.288070
0.031756 0.043384 0.716228 1.340603 -0.232303 1.357141
0.028613 0.042938 0.717791 1.139096 0.012547 1.613329
0.025468 0.042493 0.719369 1.030481 0.042082 1.669135
0.019394 0.041370 0.720840 1.127149 -0.176869 1.557640
0.015268 0.040704 0.722419 1.116933 0.018158 1.626095
0.012116 0.040268 0.724055 1.089339 0.050517 1.645320
0.011122 0.027092 0.636005 1.031558 -0.522071 0.149482
0.022425 0.030237 0.639716 1.145366 -0.372046 0.073264
0.024123 0.030963 0.641784 1.398247 -0.438716 0.479957
0.025822 0.031688 0.643841 1.525838 -0.323505 0.797914
0.024637 0.031690 0.645428 1.546054 -0.228373 0.510052
0.027300 0.032653 0.647622 1.445719 0.000617 0.145879
0.028041 0.033135 0.649506 1.487823 -0.121186 0.264396
0.030707 0.034094 0.651674 1.318096 -0.235639 0.117771
0.030486 0.034334 0.653399 1.457334 -0.135078 0.224741
0.034119 0.035529 0.655684 1.427875 -0.148826 0.191200
0.037755 0.036720 0.657949 1.465772 -0.307702 0.405303
0.039465 0.037433 0.659922 1.344441 -0.495121 0.478291
0.040212 0.037908 0.661754 1.377179 -0.477877 0.522070
0.041924 0.038618 0.663709 1.297242 -0.316791 0.158437
0.043638 0.039328 0.665655 1.582368 -0.101480 0.460601
0.044387 0.039799 0.667465 1.426046 -0.390058 0.448417
0.046103 0.040506 0.669393 1.344657 -0.217813 0.133924
0.048786 0.041446 0.671429 1.456430 -0.145397 0.229981
0.049539 0.041915 0.673216 1.601437 0.075095 0.401140
0.050292 0.042382 0.674998 1.627189 -0.069599 0.877942
0.049111 0.042380 0.676552 1.558074 -0.042840 1.145184
0.048897 0.042613 0.678220 1.471770 -0.078557 1.282181
0.045779 0.042144 0.679568 1.463299 0.077466 1.347428
0.046533 0.042611 0.681348 1.543192 -0.288309 0.660940
0.047287 0.043078 0.683122 1.497966 -0.355107 0.623026
0.048041 0.043543 0.684891 1.545245 -0.288969 0.689923
0.047827 0.043776 0.686559 1.524306 -0.076585 1.194633
0.045674 0.043545 0.688040 1.466192 0.305416 1.344231
0.045460 0.043778 0.689713 1.193738 0.990077 1.051083
0.045245 0.044012 0.691386 1.615678 -0.082293 0.569752
0.046001 0.044476 0.693145 1.545868 -0.290801 0.771597
0.045787 0.044709 0.694815 1.563047 -0.231434 0.903592
0.045572 0.044942 0.696486 1.658202 0.343253 0.803422
0.046330 0.045405 0.698234 1.422613 -0.457216 0.858880
0.045144 0.045408 0.699827 1.397817 -0.261704 1.263011
0.042985 0.045183 0.701352 1.261966 -0.327918 1.364177
0.041797 0.045188 0.702957 1.247215 -0.318955 1.385307
0.039636 0.044966 0.704501 1.373464 -0.375075 1.176967
0.039420 0.045200 0.706184 1.407826 -0.397985 1.076555
0.039204 0.045435 0.707868 1.434759 -0.421576 0.945539
0.038988 0.045670 0.709551 1.308635 -0.367297 1.276877
0.035850 0.045224 0.711063 1.252236 0.016757 1.542706
0.033684 0.045007 0.712646 1.364906 -0.132254 1.390694
0.032491 0.045018 0.714290 1.364462 -0.194068 1.355953
0.031298 0.045029 0.715940 1.270362 0.011326 1.527876
0.029128 0.044816 0.717548 1.250251 0.186090 1.563432
0.025982 0.044379 0.719123 1.104782 0.366924 1.632395
0.021857 0.043719 0.720671 1.119180 -0.064727 1.604245
0.018706 0.043287 0.722280 1.043134 -0.180139 1.598108
0.014576 0.042633 0.723867 1.047415 0.014566 1.657371
0.009910 0.028327 0.633754 1.139827 -0.448300 0.140942
0.019295 0.030968 0.637177 1.190463 -0.309585 0.057239
0.025801 0.032885 0.640065 1.400492 -0.235619 0.215230
0.027501 0.033605 0.642123 1.551613 -0.243992 0.565031
0.027279 0.033847 0.643858 1.609944 -0.149924 0.777172
0.026094 0.033851 0.645440 1.527677 -0.288234 0.562473
0.027797 0.034568 0.647479 1.561495 -0.050035 0.363526
0.031428 0.035758 0.649805 1.316249 -0.311320 0.174434
0.034098 0.036708 0.651965 1.517535 -0.047664 0.273370
0.034842 0.037184 0.653822 1.350479 -0.171292 0.111390
0.038479 0.038366 0.656096 1.288580 -0.303763 0.138522
0.042120 0.039546 0.658349 1.320157 -0.303757 0.172247
0.043833 0.040252 0.660311 1.523619 -0.020992 0.271482
0.043617 0.040487 0.661997 1.429066 -0.400773 0.478584
0.044366 0.040957 0.663813 1.378784 -0.466514 0.495252
0.047048 0.041894 0.665879 1.502705 -0.351938 0.642015
0.047799 0.042362 0.667680 1.631018 -0.036850 0.588210
0.048551 0.042828 0.669475 1.465284 0.446593 0.196003
0.049304 0.043295 0.671266 1.415612 0.852187 0.641911
0.049090 0.043527 0.672933 1.351127 0.691415 0.210448
0.050812 0.044225 0.674830 1.601755 0.423822 0.464332
0.050598 0.044456 0.676493 1.589259 0.134381 1.140033
0.050385 0.044688 0.678156 1.531089 0.225910 1.257476
0.048234 0.044458 0.679605 1.521050 -0.176182 1.123957
0.048989 0.044921 0.681377 1.486400 -0.337157 0.515801
0.049745 0.045384 0.683144 1.541249 -0.291703 0.660335
0.050502 0.045846 0.684905 1.605086 0.094193 1.091528
0.049319 0.045848 0.686469 1.444916 0.020445 1.357643
0.047165 0.045621 0.687944 1.445449 -0.042788 1.335360
0.046951 0.045854 0.689612 1.588589 -0.181429 0.881939
0.047708 0.046315 0.691369 1.541763 -0.229118 0.496058
0.048466 0.046776 0.693120 1.572579 -0.027968 0.376235
0.048252 0.047008 0.694783 1.547582 -0.240310 0.538831
0.049011 0.047467 0.696526 1.573660 0.601508 0.611993
0.048798 0.047699 0.698186 1.585248 -0.201950 0.838789
0.048585 0.047931 0.699846 1.380444 -0.274795 1.275365
0.045453 0.047483 0.701287 1.256825 -0.311582 1.382421
0.044266 0.047489 0.702885 1.338889 -0.378483 1.224999
0.042104 0.047271 0.704419 1.365140 -0.446161 1.079283
0.042863 0.047730 0.706160 1.615893 0.275548 1.065316
0.042649 0.047963 0.707833 1.559923 0.163931 1.205531
0.040485 0.047747 0.709386 1.253867 -0.106951 1.503444
0.037345 0.047308 0.710892 1.197739 -0.000124 1.576075
0.035178 0.047096 0.712468 1.352274 -0.197490 1.367438
0.034961 0.047332 0.714159 1.358444 -0.155425 1.385466
0.032792 0.047121 0.715751 1.374951 -0.069194 1.408369
0.028669 0.046466 0.717259 1.115608 0.238195 1.642888
0.024544 0.045814 0.718788 1.222577 0.022242 1.564742
0.023347 0.045831 0.720463 1.315180 -0.142399 1.435681
0.022149 0.045849 0.722143 1.207485 -0.210303 1.489545
0.017040 0.044982 0.723682 1.007304 -0.161664 1.620653
-0.002605 0.026464 0.627646 1.036046 -0.616126 0.287938
0.007737 0.029329 0.631329 1.179634 -0.411996 0.135736
0.014239 0.031238 0.634287 1.128500 -0.464946 0.150186
0.018822 0.032668 0.636880 1.348665 -0.219934 0.139781
0.025333 0.034568 0.639770 1.286862 0.061824 -0.028633
0.027035 0.035282 0.641829 1.480995 -0.010030 0.198031
0.027775 0.035760 0.643720 1.564268 -0.195860 0.973846
0.026589 0.035767 0.645299 1.561683 -0.229603 0.580600
0.029258 0.036713 0.647489 1.310309 -0.281258 0.143007
0.031928 0.037658 0.649662 1.314400 -0.334684 0.193696
0.033637 0.038366 0.651674 1.353513 -0.427479 0.362102
0.034381 0.038839 0.653532 1.396489 -0.414875 0.425615
0.038022 0.040011 0.655808 1.408162 -0.235561 0.225840
0.040700 0.040948 0.657925 1.355292 -0.069717 0.067998
0.042414 0.041650 0.659890 1.485903 0.010534 0.198068
0.044129 0.042350 0.661845 1.500483 -0.171042 0.324636
0.045846 0.043049 0.663789 1.478198 -0.295807 0.417368
0.046597 0.043514 0.665596 1.590610 -0.106302 0.493715
0.046382 0.043748 0.667271 1.605714 0.014289 1.055610
0.046167 0.043982 0.668947 1.596558 0.433169 1.041283
0.045952 0.044216 0.670622 1.607714 0.534024 0.667646
0.046706 0.044680 0.672416 1.375457 0.655636 0.209805
0.048428 0.045373 0.674319 1.450050 0.248153 0.123625
0.049182 0.045835 0.676099 1.644139 0.347245 0.576811
0.048969 0.046067 0.677764 1.460648 -0.102540 1.285988
0.047786 0.046071 0.679322 1.596673 -0.178156 0.821832
0.049511 0.046760 0.681199 1.510325 -0.287845 0.494648
0.049298 0.046992 0.682862 1.655889 0.057159 0.640317
0.049085 0.047224 0.684525 1.644208 0.285207 0.959288
0.047901 0.047229 0.686091 1.427618 0.326051 1.388553
0.047687 0.047461 0.687756 1.461840 -0.153771 1.252589
0.046502 0.047467 0.689330 1.661289 0.270086 0.864676
0.046288 0.047699 0.690997 1.611915 -0.120606 0.620248
0.047046 0.048158 0.692752 1.659634 0.059792 0.677766
0.047805 0.048616 0.694501 1.521413 -0.327731 0.823269
0.047592 0.048847 0.696164 1.514663 0.675537 0.512372
0.048351 0.049304 0.697905 1.533848 -0.301860 0.645289
0.048138 0.049536 0.699565 1.466877 -0.377989 0.949551
0.046952 0.049543 0.701152 1.339091 -0.368171 1.236822
0.045765 0.049552 0.702743 1.267034 -0.349924 1.339803
0.043602 0.049337 0.704272 1.349250 -0.307123 1.286612
0.042413 0.049348 0.705877 1.513214 -0.153823 1.161083
0.042199 0.049581 0.707550 1.480994 0.216975 1.334317
0.040033 0.049370 0.709102 1.388337 0.151197 1.443800
0.038843 0.049382 0.710722 1.239007 -0.158245 1.492563
0.035699 0.048952 0.712237 1.310989 -0.299989 1.337617
0.035482 0.049188 0.713926 1.284279 -0.304934 1.361376
0.032336 0.048761 0.715464 1.143953 -0.059360 1.592437
0.029187 0.048337 0.717017 1.139686 0.115413 1.628239
0.025059 0.047694 0.718542 1.353700 -0.097540 1.418732
0.025817 0.048153 0.720299 1.400400 -0.299370 1.223156
0.023641 0.047953 0.721931 1.326756 -0.209964 1.386693
0.019508 0.047317 0.723500 1.011530 -0.086405 1.646007
0.013414 0.046247 0.725020 0.895226 0.018711 1.707079
0.003869 0.029617 0.626746 1.285041 -0.293132 0.126496
0.009408 0.031280 0.629581 1.198371 -0.329270 0.078146
0.017838 0.033643 0.632894 1.214776 -0.420719 0.175920
0.019537 0.034358 0.634990 1.459016 -0.249786 0.320509
0.021237 0.035071 0.637076 1.336519 -0.198854 0.113021
0.024864 0.036251 0.639475 1.487654 0.431598 0.222588
0.028495 0.037427 0.641854 1.438693 0.473952 0.172151
0.029236 0.037902 0.643741 1.591537 -0.107207 0.998352
0.028051 0.037910 0.645314 1.658655 0.054418 0.674484
0.032651 0.039313 0.647803 1.382476 -0.271925 0.221355
0.036289 0.040480 0.650117 1.321662 -0.341225 0.208633
0.038001 0.041182 0.652117 1.552915 -0.048183 0.343139
0.037782 0.041419 0.653818 1.452056 -0.088511 0.190816
0.040461 0.042349 0.655944 1.342178 -0.150255 0.091218
0.042176 0.043047 0.657915 1.419798 -0.026320 0.122758
0.043892 0.043743 0.659876 1.462004 -0.155132 0.245128
0.045610 0.044437 0.661827 1.464999 -0.105211 0.218472
0.047329 0.045130 0.663767 1.543846 0.011602 0.295143
0.048081 0.045593 0.665569 1.669743 0.154020 0.781885
0.047867 0.045826 0.667239 1.649193 0.091751 0.929934
0.046685 0.045830 0.668786 1.599500 0.393802 1.060923
0.046470 0.046064 0.670459 1.582610 0.126792 0.342425
0.048193 0.046752 0.672368 1.429342 -0.065191 0.149679
0.049917 0.047440 0.674267 1.458161 -0.095723 0.203232
0.051643 0.048126 0.676155 1.664990 0.127724 0.659639
0.050460 0.048130 0.677703 1.551800 -0.016286 1.173073
0.050247 0.048362 0.679363 1.620990 0.082053 0.456161
0.051005 0.048819 0.681128 1.610212 -0.068289 0.525373
0.050792 0.049050 0.682785 1.590924 -0.155691 0.927702
0.049608 0.049057 0.684343 1.540697 -0.108478 1.139141
0.049395 0.049288 0.686003 1.522063 -0.190480 1.106954
0.050154 0.049744 0.687758 1.639393 -0.054823 0.777874
0.049942 0.049975 0.689415 1.453912 0.791873 0.578921
0.048757 0.049983 0.690983 1.411404 -0.464052 0.606768
0.050489 0.050661 0.692817 1.557471 0.528244 0.428883
0.051250 0.051115 0.694556 1.655334 0.295700 0.604339
0.051038 0.051345 0.696209 1.645546 0.414492 0.785726
0.050826 0.051576 0.697861 1.652942 0.083074 0.902604
0.050614 0.051806 0.699513 1.601414 0.096299 1.101943
0.049428 0.051815 0.701092 1.472417 -0.222006 1.178969
0.048241 0.051825 0.702675 1.347751 -0.205896 1.367037
0.046078 0.051615 0.704195 1.269397 -0.052090 1.511068
0.044889 0.051626 0.705792 1.246980 -0.114221 1.505801
0.041749 0.051199 0.707266 1.485581 0.220365 1.327775
0.041534 0.051432 0.708939 1.544093 -0.050420 1.170778
0.040343 0.051446 0.710554 1.450603 -0.175642 1.254562
0.039151 0.051461 0.712174 1.392858 -0.245355 1.283757
0.037959 0.051476 0.713799 1.312432 -0.367667 1.271867
0.035789 0.051274 0.715379 1.177801 -0.276491 1.471228
0.032639 0.050856 0.716921 1.002130 -0.107814 1.642595
